# .PCD v0.7 - Point Cloud Data file format
VERSION 0.7
FIELDS x y z rgb
SIZE 4 4 4 4
TYPE F F F U
COUNT 1 1 1 1
WIDTH 1114
HEIGHT 1
VIEWPOINT 0 0 0 1 0 0 0
POINTS 1114
DATA ascii
0.041023802 0.032712121 0.67700005 7693625
0.041763932 0.032712121 0.67700005 6048800
0.042441275 0.032663804 0.67600006 8091209
0.043180309 0.032663804 0.67600006 10393964
0.043919344 0.032663804 0.67600006 11117939
0.04465837 0.032663804 0.67600006 10065251
0.045397405 0.032663804 0.67600006 8218166
0.04620469 0.032712121 0.67700005 8612924
0.047014158 0.032760441 0.67800003 9071165
0.047755379 0.032760441 0.67800003 8281649
0.048711181 0.0329054 0.68100005 9135675
0.049746171 0.033098675 0.68500006 10254156
0.0512322 0.033581868 0.69500005 9925704
0.051992007 0.033581868 0.69500005 9991497
0.052903607 0.033678506 0.69700003 12561020
0.054358557 0.034113377 0.70600003 14008466
0.056223627 0.034789849 0.72000003 11246970
-0.032625582 0.034639936 0.70100003 5261610
-0.031859219 0.034639936 0.70100003 3879957
-0.031004146 0.034541108 0.69900006 6177577
-0.030239969 0.034541108 0.69900006 6638128
-0.029475791 0.034541108 0.69900006 7096371
-0.028711613 0.034541108 0.69900006 6306855
-0.027987417 0.034590524 0.70000005 5783089
-0.027222147 0.034590524 0.70000005 4598815
-0.026456874 0.034590524 0.70000005 2301215
-0.025691602 0.034590524 0.70000005 3090731
-0.024961941 0.034639936 0.70100003 2371121
-0.024195576 0.034639936 0.70100003 2897465
-0.023429213 0.034639936 0.70100003 2897978
-0.022662846 0.034639936 0.70100003 2897978
-0.02192772 0.034689352 0.70200002 2435111
-0.021160262 0.034689352 0.70200002 2566697
-0.020450903 0.034788184 0.70400006 2106399
-0.019709216 0.034837596 0.70500004 1843227
-0.018992204 0.034936428 0.70700002 3490365
-0.018219281 0.034936428 0.70700002 4872018
-0.01749571 0.03503526 0.70900005 1977390
-0.016767766 0.035134088 0.71100003 2503734
-0.01599047 0.035134088 0.71100003 3489354
-0.01523457 0.0351835 0.71200001 4936800
-0.014496788 0.035282332 0.71400005 5262165
-0.013754632 0.035381161 0.71600002 3683133
-0.01297187 0.035381161 0.71600002 4404016
-0.01220613 0.035430577 0.71700001 4732981
-0.011438206 0.035479993 0.71800005 5256747
-0.010653256 0.035479993 0.71800005 5256747
-0.0098820496 0.035529409 0.71900004 5716011
-0.0090960078 0.035529409 0.71900004 4992288
-0.0051657935 0.035529409 0.71900004 4598549
-0.0043797512 0.035529409 0.71900004 4532756
-0.0035937082 0.035529409 0.71900004 4794131
-0.0028076654 0.035529409 0.71900004 4925717
-0.0020188109 0.035479993 0.71800005 5583647
-0.0012321431 0.035430577 0.71700001 4794131
-0.00044828688 0.035430577 0.71700001 4138779
0.00033510127 0.035381161 0.71600002 5783604
0.0011178643 0.035381161 0.71600002 5459530
0.0019006272 0.035381161 0.71600002 3617326
0.0026796425 0.035331748 0.71500003 1777183
0.003461312 0.035331748 0.71500003 2106148
0.0042429818 0.035331748 0.71500003 1843746
0.0050176242 0.035282332 0.71400005 1843746
0.0057900799 0.03523292 0.71300006 1514781
0.0065695629 0.03523292 0.71300006 1448988
0.0073490464 0.03523292 0.71300006 1514781
0.0081171291 0.0351835 0.71200001 1712160
0.0088830255 0.035134088 0.71100003 1843227
0.0096603222 0.035134088 0.71100003 1645848
0.010437619 0.035134088 0.71100003 1645076
0.011199143 0.035084672 0.71000004 1776662
0.011975346 0.035084672 0.71000004 2300948
0.01273359 0.03503526 0.70900005 2498327
0.0135087 0.03503526 0.70900005 3812127
0.014283811 0.03503526 0.70900005 4799022
0.01503768 0.03498584 0.708 4929315
0.015789364 0.034936428 0.70700002 4468764
0.016562289 0.034936428 0.70700002 5518364
0.017286174 0.034837596 0.70500004 6176294
0.017980073 0.034689352 0.70200002 6438175
0.018747529 0.034689352 0.70200002 6767140
0.019403791 0.034491692 0.69800001 6898211
0.020109091 0.034392864 0.69600004 6766625
0.020869991 0.034392864 0.69600004 6831646
0.021444416 0.034096371 0.69000006 6963232
0.022102235 0.033948127 0.68700004 6634269
0.022853296 0.033948127 0.68700004 5647374
0.02343256 0.033701051 0.68200004 4332815
0.024071798 0.033552807 0.67900002 4859159
0.02481411 0.033552807 0.67900002 6243649
0.025518786 0.033503391 0.67800003 7954267
0.026260007 0.033503391 0.67800003 10654097
0.027001224 0.033503391 0.67800003 9732995
0.027742445 0.033503391 0.67800003 7691097
0.028483665 0.033503391 0.67800003 6638409
0.029224886 0.033503391 0.67800003 8278608
0.029966103 0.033503391 0.67800003 8804952
0.030707324 0.033503391 0.67800003 9794661
0.031494927 0.033552807 0.67900002 11110521
0.032237239 0.033552807 0.67900002 9470309
0.032979552 0.033552807 0.67900002 9404516
0.033721864 0.033552807 0.67900002 8943452
0.034514934 0.033602219 0.68000001 7101248
0.035258342 0.033602219 0.68000001 7030578
0.036001749 0.033602219 0.68000001 8083266
0.036691118 0.033552807 0.67900002 8935997
0.037433431 0.033552807 0.67900002 9001790
0.038175743 0.033552807 0.67900002 9198651
0.038860742 0.033503391 0.67800003 9198651
0.039601959 0.033503391 0.67800003 8872253
0.040283676 0.033453979 0.67700005 8872253
0.040963206 0.033404563 0.67600006 8416324
0.041702241 0.033404563 0.67600006 5784604
0.042378489 0.033355147 0.67500001 6314798
0.043052554 0.033305731 0.67400002 9209690
0.043789402 0.033305731 0.67400002 10986867
0.044526245 0.033305731 0.67400002 10921074
0.045263093 0.033305731 0.67400002 9074506
0.04620469 0.033453979 0.67700005 8087611
0.047014158 0.033503391 0.67800003 8545080
0.047755379 0.033503391 0.67800003 7887150
0.048711181 0.033651639 0.68100005 9267261
0.049746171 0.033849299 0.68500006 10254156
0.051379628 0.034442276 0.69700003 9794886
0.052141622 0.034442276 0.69700003 10123851
0.052903607 0.034442276 0.69700003 12889467
0.054358557 0.034887012 0.70600003 13810569
0.056301713 0.035628237 0.72100002 9931360
-0.032625582 0.035408095 0.70100003 5656880
-0.031859219 0.035408095 0.70100003 3748883
-0.031004146 0.035307076 0.69900006 6178347
-0.030196706 0.035256561 0.69800001 6375726
-0.029433619 0.035256561 0.69800001 6767406
-0.028670536 0.035256561 0.69800001 6109476
-0.027947435 0.035307076 0.69900006 6242868
-0.027183259 0.035307076 0.69900006 5519145
-0.026419079 0.035307076 0.69900006 2235675
-0.025691602 0.035357583 0.70000005 3090984
-0.024926333 0.035357583 0.70000005 2567984
-0.024195576 0.035408095 0.70100003 2765363
-0.023429213 0.035408095 0.70100003 3029305
-0.022662846 0.035408095 0.70100003 2831926
-0.021896485 0.035408095 0.70100003 2895915
-0.02113012 0.035408095 0.70100003 3159087
-0.020421853 0.035509113 0.70300001 3355696
-0.019709216 0.035610139 0.70500004 2237215
-0.018992204 0.035711158 0.70700002 2963508
-0.018219281 0.035711158 0.70700002 4871505
-0.017471034 0.035761669 0.708 2306355
-0.016744183 0.035862692 0.71000004 1451046
-0.01596798 0.035862692 0.71000004 1976628
-0.01523457 0.035963714 0.71200001 3358281
-0.014496788 0.036064737 0.71400005 4473676
-0.013735422 0.036115248 0.71500003 3881539
-0.012953753 0.036115248 0.71500003 4207920
-0.0012321431 0.036216266 0.71700001 4926231
-0.00044828688 0.036216266 0.71700001 4600100
0.00033510127 0.036165755 0.71600002 5652788
0.001116303 0.036115248 0.71500003 5327946
0.0018979727 0.036115248 0.71500003 3551535
0.0026796425 0.036115248 0.71500003 2106148
0.003456471 0.036064737 0.71400005 1974562
0.0042370479 0.036064737 0.71400005 1777953
0.0050105969 0.036014225 0.71300006 1712160
0.0057900799 0.036014225 0.71300006 1383195
0.0065695629 0.036014225 0.71300006 1383195
0.0073387385 0.035963714 0.71200001 1514781
0.0080943285 0.035862692 0.71000004 1646367
0.0088580381 0.03581218 0.70900005 1383446
0.009633149 0.03581218 0.70900005 1975583
0.010393578 0.035761669 0.708 2500385
0.011151822 0.035711158 0.70700002 1513490
0.011924746 0.035711158 0.70700002 1840399
0.01267971 0.035660647 0.70600003 2169364
0.01345154 0.035660647 0.70600003 3614748
0.014223371 0.035660647 0.70600003 5062194
0.014973962 0.035610139 0.70500004 5520682
0.015700033 0.035509113 0.70300001 4665373
0.016468583 0.035509113 0.70300001 4728848
0.017188096 0.035408095 0.70100003 6176294
0.017903235 0.035307076 0.69900006 6701347
0.018667413 0.035307076 0.69900006 6767140
0.019403791 0.035256561 0.69800001 6767138
0.020166874 0.035256561 0.69800001 6832931
0.021351177 0.034700941 0.68700004 6964002
0.022005718 0.034549408 0.68400002 6634271
0.022753499 0.034549408 0.68400002 5581583
0.023398202 0.034397878 0.68100005 3938316
0.024071798 0.034296855 0.67900002 4793625
0.02481411 0.034296855 0.67900002 6111550
0.025518786 0.034246344 0.67800003 6506308
0.026260007 0.034246344 0.67800003 8942709
0.027001224 0.034246344 0.67800003 10587534
0.027742445 0.034246344 0.67800003 9535616
0.028483665 0.034246344 0.67800003 7101275
0.029224886 0.034246344 0.67800003 7557197
0.029966103 0.034246344 0.67800003 7491404
0.030707324 0.034246344 0.67800003 8609871
0.031494927 0.034296855 0.67900002 10386282
0.032237239 0.034296855 0.67900002 10522484
0.032979552 0.034296855 0.67900002 9667175
0.033721864 0.034296855 0.67900002 8813149
0.034514934 0.034347367 0.68000001 8089426
0.035258342 0.034347367 0.68000001 7756611
0.036001749 0.034347367 0.68000001 7822404
0.036691118 0.034296855 0.67900002 8936512
0.037433431 0.034296855 0.67900002 9002305
0.038175743 0.034296855 0.67900002 9329983
0.038860742 0.034246344 0.67800003 9329983
0.039601959 0.034246344 0.67800003 8740413
0.040283676 0.034195837 0.67700005 8806206
0.040963206 0.034145325 0.67600006 8547912
0.041702241 0.034145325 0.67600006 6047778
0.042378489 0.03409481 0.67500001 4801561
0.043052554 0.034044303 0.67400002 7499074
0.043789402 0.034044303 0.67400002 10395243
0.044526245 0.034044303 0.67400002 11316345
0.045263093 0.034044303 0.67400002 10656105
0.04599994 0.034044303 0.67400002 8090178
0.046806131 0.03409481 0.67500001 7492906
0.04754407 0.03409481 0.67500001 7624492
0.048425067 0.034195837 0.67700005 9333054
0.049310435 0.034296855 0.67900002 10517328
0.050052751 0.034296855 0.67900002 10057542
0.052141622 0.03520605 0.69700003 10386507
0.052903607 0.03520605 0.69700003 10915929
0.054358557 0.035660647 0.70600003 12494961
0.056301713 0.036418311 0.72100002 8681543
-0.032532502 0.036073036 0.69900006 6183478
-0.031768326 0.036073036 0.69900006 3880723
-0.030959789 0.036021426 0.69800001 5783589
-0.030196706 0.036021426 0.69800001 6375726
-0.029433619 0.036021426 0.69800001 6898992
-0.028670536 0.036021426 0.69800001 6043683
-0.027907452 0.036021426 0.69800001 6177329
-0.027144369 0.036021426 0.69800001 5716778
-0.026381282 0.036021426 0.69800001 2431769
-0.025654901 0.036073036 0.69900006 3287078
-0.024926333 0.036124643 0.70000005 2567471
-0.024161059 0.036124643 0.70000005 2830643
-0.02339579 0.036124643 0.70000005 2700340
-0.022662846 0.036176249 0.70100003 2831926
-0.021896485 0.036176249 0.70100003 3355439
-0.02113012 0.036176249 0.70100003 3881783
-0.020392803 0.036227856 0.70200002 4012851
-0.01968126 0.036331069 0.70400006 2565405
-0.018965341 0.036434282 0.70600003 3226163
-0.018193511 0.036434282 0.70600003 4739402
-0.017471034 0.036537495 0.708 3293250
-0.016744183 0.036640707 0.71000004 990495
-0.01596798 0.036640707 0.71000004 1516329
-0.01523457 0.03674392 0.71200001 1647915
-0.014496788 0.036847137 0.71400005 2434091
0.001116303 0.03689874 0.71500003 5130314
0.0018979727 0.03689874 0.71500003 3880247
0.0026796425 0.03689874 0.71500003 1710622
0.003456471 0.036847137 0.71400005 2171173
0.0042370479 0.036847137 0.71400005 1842976
0.0050105969 0.03679553 0.71300006 1579804
0.0057900799 0.03679553 0.71300006 1317402
0.0065695629 0.03679553 0.71300006 1317402
0.0073387385 0.03674392 0.71200001 1514781
0.0080943285 0.036640707 0.71000004 1712160
0.0088580381 0.036589101 0.70900005 1251607
0.009633149 0.036589101 0.70900005 4146499
0.010393578 0.036537495 0.708 5264461
0.011151822 0.036485888 0.70700002 4343359
0.011924746 0.036485888 0.70700002 3617580
0.01267971 0.036434282 0.70600003 3091236
0.01345154 0.036434282 0.70600003 3022359
0.014223371 0.036434282 0.70600003 4272426
0.014973962 0.036382675 0.70500004 5323303
0.015700033 0.036279462 0.70300001 4731166
0.016468583 0.036279462 0.70300001 4596748
0.017188096 0.036176249 0.70100003 6241573
0.017903235 0.036073036 0.69900006 6504738
0.018667413 0.036073036 0.69900006 6636324
0.019431591 0.036073036 0.69900006 6832416
0.021351177 0.035453755 0.68700004 7029795
0.022005718 0.035298936 0.68400002 6371617
0.022753499 0.035298936 0.68400002 5121550
0.023398202 0.035144117 0.68100005 3872525
0.024036346 0.034989297 0.67800003 4596248
0.024777565 0.034989297 0.67800003 5913142
0.025481148 0.034937691 0.67700005 6505279
0.026221275 0.034937691 0.67700005 7231318
0.026961401 0.034937691 0.67700005 10718347
0.027701529 0.034937691 0.67700005 10719892
0.028441653 0.034937691 0.67700005 8877688
0.02918178 0.034937691 0.67700005 6769995
0.029966103 0.034989297 0.67800003 6967374
0.030707324 0.034989297 0.67800003 7754564
0.031448543 0.034989297 0.67800003 8478287
0.032189764 0.034989297 0.67800003 10785142
0.032930981 0.034989297 0.67800003 10456177
0.033672202 0.034989297 0.67800003 9011043
0.034464177 0.035040904 0.67900002 8418906
0.035206493 0.035040904 0.67900002 8941657
0.035948806 0.035040904 0.67900002 8020555
0.036637083 0.034989297 0.67800003 8739395
0.0373783 0.034989297 0.67800003 8805188
0.038119521 0.034989297 0.67800003 9264962
0.038860742 0.034989297 0.67800003 9264962
0.039601959 0.034989297 0.67800003 8740415
0.040283676 0.034937691 0.67700005 8674622
0.040902607 0.034834474 0.67500001 8547914
0.04164055 0.034834474 0.67500001 6047780
0.042315707 0.034782868 0.67400002 4209174
0.043052554 0.034782868 0.67400002 5788206
0.043789402 0.034782868 0.67400002 8685143
0.044460181 0.034731261 0.67300004 10658933
0.045195937 0.034731261 0.67300004 10986865
0.045931689 0.034731261 0.67300004 9539419
0.046667445 0.034731261 0.67300004 7296297
0.047403201 0.034731261 0.67300004 7691055
0.048210479 0.034782868 0.67400002 9530431
0.049310435 0.035040904 0.67900002 10254154
0.050052751 0.035040904 0.67900002 10452298
-0.032485958 0.036786295 0.69800001 6183478
-0.031722873 0.036786295 0.69800001 3880723
-0.030959789 0.036786295 0.69800001 5783589
-0.030196706 0.036786295 0.69800001 6375726
-0.029433619 0.036786295 0.69800001 6898992
-0.028670536 0.036786295 0.69800001 6043683
-0.027907452 0.036786295 0.69800001 6177329
-0.027144369 0.036786295 0.69800001 5716778
-0.026381282 0.036786295 0.69800001 2431769
-0.025654901 0.036839001 0.69900006 3287078
-0.024926333 0.036891703 0.70000005 2567471
-0.024161059 0.036891703 0.70000005 2830643
-0.02339579 0.036891703 0.70000005 2700340
-0.022662846 0.036944404 0.70100003 2831926
-0.021896485 0.036944404 0.70100003 3355439
-0.02113012 0.036944404 0.70100003 3881783
-0.020392803 0.036997106 0.70200002 4012851
-0.01968126 0.037102513 0.70400006 2565405
-0.018965341 0.037207916 0.70600003 3226163
-0.018193511 0.037207916 0.70600003 4739402
-0.017471034 0.03731332 0.708 3293250
-0.016744183 0.037418727 0.71000004 990495
-0.01596798 0.037418727 0.71000004 1516329
-0.01523457 0.03752413 0.71200001 1647915
0.0034516302 0.037576832 0.71300006 2171173
0.0042311135 0.037576832 0.71300006 1842976
0.0050105969 0.037576832 0.71300006 1579804
0.0057819588 0.03752413 0.71200001 1317402
0.0065603489 0.03752413 0.71200001 1317402
0.0073284316 0.037471429 0.71100003 1514781
0.0080943285 0.037418727 0.71000004 1712160
0.0088455444 0.03731332 0.708 1251607
0.009619561 0.03731332 0.708 4146499
0.010378898 0.037260618 0.70700002 5264461
0.011120276 0.037155215 0.70500004 4343359
0.011891013 0.037155215 0.70500004 3617580
0.012625829 0.037049808 0.70300001 3091236
0.013375327 0.036997106 0.70200002 3022359
0.014142785 0.036997106 0.70200002 4272426
0.014889003 0.036944404 0.70100003 5323303
0.015633034 0.036891703 0.70000005 4731166
0.016398305 0.036891703 0.70000005 4596748
0.017090017 0.036733594 0.69700003 6241573
0.017852008 0.036733594 0.69700003 6504738
0.018667413 0.036839001 0.69900006 6636324
0.019431591 0.036839001 0.69900006 6832416
0.021289021 0.036101166 0.68500006 7029795
0.021941375 0.035943057 0.68200004 6371617
0.022686969 0.035943057 0.68200004 5121550
0.023363842 0.03583765 0.68000001 3872525
0.024000894 0.035679545 0.67700005 4596248
0.02474102 0.035679545 0.67700005 5913142
0.025481148 0.035679545 0.67700005 6505279
0.026221275 0.035679545 0.67700005 7231318
0.026961401 0.035679545 0.67700005 10718347
0.027701529 0.035679545 0.67700005 10719892
0.028441653 0.035679545 0.67700005 8877688
0.02918178 0.035679545 0.67700005 6769995
0.029921906 0.035679545 0.67700005 6967374
0.030662034 0.035679545 0.67700005 7754564
0.031402159 0.035679545 0.67700005 8478287
0.032142285 0.035679545 0.67700005 10785142
0.032882411 0.035679545 0.67700005 10456177
0.033622541 0.035679545 0.67700005 9011043
0.03441342 0.035732247 0.67800003 8418906
0.035154641 0.035732247 0.67800003 8941657
0.035895862 0.035732247 0.67800003 8020555
0.036583044 0.035679545 0.67700005 8739395
0.037323173 0.035679545 0.67700005 8805188
0.038063299 0.035679545 0.67700005 9264962
0.038803425 0.035679545 0.67700005 9264962
0.03954355 0.035679545 0.67700005 8740415
0.040224176 0.035626844 0.67600006 8674622
0.040902607 0.035574138 0.67500001 8547914
0.04164055 0.035574138 0.67500001 6047780
0.042315707 0.035521436 0.67400002 4209174
0.042988677 0.035468735 0.67300004 5788206
0.043724433 0.035468735 0.67300004 8685143
0.044460181 0.035468735 0.67300004 10658933
0.045128781 0.035416033 0.67200005 10986865
0.045863442 0.035416033 0.67200005 9539419
0.046598103 0.035416033 0.67200005 7296297
0.047332767 0.035416033 0.67200005 7691055
0.048067421 0.035416033 0.67200005 9530431
-0.032485958 0.037551165 0.69800001 6776126
-0.031722873 0.037551165 0.69800001 3815441
-0.030959789 0.037551165 0.69800001 5390116
-0.030196706 0.037551165 0.69800001 5850667
-0.029433619 0.037551165 0.69800001 6307884
-0.028670536 0.037551165 0.69800001 5913126
-0.027907452 0.037551165 0.69800001 5782571
-0.027144369 0.037551165 0.69800001 5322020
-0.026381282 0.037551165 0.69800001 2825495
-0.025654901 0.037604965 0.69900006 3220253
-0.024926333 0.037658762 0.70000005 2567469
-0.024161059 0.037658762 0.70000005 2633262
-0.02339579 0.037658762 0.70000005 2962742
-0.022662846 0.037712559 0.70100003 3554879
-0.021896485 0.037712559 0.70100003 4012338
-0.02113012 0.037712559 0.70100003 4209717
-0.020392803 0.037766356 0.70200002 4536111
-0.01968126 0.037873957 0.70400006 3878181
-0.018965341 0.037981551 0.70600003 3224878
-0.018193511 0.037981551 0.70600003 4277566
-0.017471034 0.038089145 0.708 4477010
-0.0167206 0.038142946 0.70900005 1516325
-0.01594549 0.038142946 0.70900005 1450021
0.0073284316 0.038250543 0.71100003 1514781
0.0080829281 0.038142946 0.70900005 1646367
0.0088330507 0.038035348 0.70700002 1645595
0.009605974 0.038035348 0.70700002 1185044
0.010334858 0.037873957 0.70400006 3618615
0.011057182 0.037712559 0.70100003 7829367
0.011823546 0.037712559 0.70100003 10065805
0.012553991 0.037604965 0.69900006 10855321
0.013280062 0.037497368 0.69700003 8355176
0.014042052 0.037497368 0.69700003 2960150
0.014761565 0.03738977 0.69500005 3284238
0.015499036 0.03733597 0.69400001 4073754
0.016257748 0.03733597 0.69400001 4334094
0.016967421 0.037228376 0.69200003 5649954
0.017647108 0.037066981 0.68900001 6241566
0.018400352 0.037066981 0.68900001 6307359
0.019098001 0.036959384 0.68700004 6569246
0.019791275 0.03685179 0.68500006 6569246
0.020540148 0.03685179 0.68500006 6700064
0.021226862 0.036744192 0.68300003 6831650
0.021909203 0.036636595 0.68100005 6898224
0.022653705 0.036636595 0.68100005 4924434
0.023329483 0.036528997 0.67900002 3675148
0.024000894 0.036421403 0.67700005 3938320
0.02474102 0.036421403 0.67700005 5321003
0.025481148 0.036421403 0.67700005 6965828
0.026221275 0.036421403 0.67700005 6965830
0.026961401 0.036421403 0.67700005 6571072
0.027701529 0.036421403 0.67700005 8087400
0.028441653 0.036421403 0.67700005 11048085
0.029138677 0.036367606 0.67600006 10653846
0.029877709 0.036367606 0.67600006 7364196
0.030616743 0.036367606 0.67600006 7163720
0.031355776 0.036367606 0.67600006 7229513
0.032142285 0.036421403 0.67700005 6899769
0.032882411 0.036421403 0.67700005 9597282
0.033622541 0.036421403 0.67700005 11181195
0.03441342 0.0364752 0.67800003 10128507
0.035154641 0.0364752 0.67800003 7364433
0.035895862 0.0364752 0.67800003 7496019
0.036583044 0.036421403 0.67700005 8609612
0.037323173 0.036421403 0.67700005 8478026
0.038063299 0.036421403 0.67700005 8740417
0.038803425 0.036421403 0.67700005 9200968
0.03954355 0.036421403 0.67700005 8610627
0.040224176 0.036367606 0.67600006 8150076
0.040902607 0.036313806 0.67500001 8219981
0.04164055 0.036313806 0.67500001 5851433
0.042315707 0.036260009 0.67400002 4013340
0.042988677 0.036206208 0.67300004 7500369
0.043724433 0.036206208 0.67300004 5791538
0.044460181 0.036206208 0.67300004 7173191
0.045128781 0.036152411 0.67200005 10396274
0.045863442 0.036152411 0.67200005 10791032
0.046598103 0.036152411 0.67200005 9602132
0.047332767 0.036152411 0.67200005 7825721
0.048067421 0.036152411 0.67200005 9596737
-0.032485958 0.03831603 0.69800001 6776126
-0.031722873 0.03831603 0.69800001 3815441
-0.030915435 0.038261138 0.69700003 5324321
-0.030153444 0.038261138 0.69700003 5850665
-0.029433619 0.03831603 0.69800001 5979687
-0.028670536 0.03831603 0.69800001 5584929
-0.027907452 0.03831603 0.69800001 5716778
-0.027144369 0.03831603 0.69800001 4927262
-0.026381282 0.03831603 0.69800001 2957081
-0.025654901 0.038370926 0.69900006 3088667
-0.024926333 0.038425822 0.70000005 2698283
-0.024161059 0.038425822 0.70000005 2764076
-0.02339579 0.038425822 0.70000005 2962740
-0.022662846 0.038480714 0.70100003 3291705
-0.021896485 0.038480714 0.70100003 4143924
-0.02113012 0.038480714 0.70100003 4209717
-0.020392803 0.038535606 0.70200002 4799283
-0.01968126 0.038645398 0.70400006 4272939
-0.018965341 0.038755186 0.70600003 3158060
-0.018193511 0.038755186 0.70600003 4013369
-0.017446358 0.038810078 0.70700002 4543057
0.0080715269 0.03886497 0.708 1646367
0.0088330507 0.038810078 0.70700002 1777181
0.009605974 0.038810078 0.70700002 1514009
0.010334858 0.038645398 0.70400006 1840915
0.011057182 0.038480714 0.70100003 3748912
0.011823546 0.038480714 0.70100003 7103826
0.012553991 0.038370926 0.69900006 9932925
0.013280062 0.038261138 0.69700003 10328194
0.014042052 0.038261138 0.69700003 6841165
0.014761565 0.03815135 0.69500005 3286035
0.015499036 0.038096454 0.69400001 2957070
0.016257748 0.038096454 0.69400001 3939852
0.016967421 0.03798667 0.69200003 5518884
0.017647108 0.037821986 0.68900001 6307618
0.018400352 0.037821986 0.68900001 6176032
0.019098001 0.037712198 0.68700004 6569248
0.019791275 0.03760241 0.68500006 6569248
0.020540148 0.03760241 0.68500006 6634017
0.021226862 0.037492622 0.68300003 6699810
0.021909203 0.037382834 0.68100005 6766384
0.022653705 0.037382834 0.68100005 5516317
0.023329483 0.037273046 0.67900002 3412490
0.024000894 0.037163258 0.67700005 3675662
0.02474102 0.037163258 0.67700005 4860452
0.025481148 0.037163258 0.67700005 6702656
0.026221275 0.037163258 0.67700005 7031105
0.026961401 0.037163258 0.67700005 6965312
0.027701529 0.037163258 0.67700005 6506823
0.028441653 0.037163258 0.67700005 9006957
0.029138677 0.037108365 0.67600006 10851991
0.029877709 0.037108365 0.67600006 9930889
0.030616743 0.037108365 0.67600006 7428697
0.031355776 0.037108365 0.67600006 6902353
0.03209481 0.037108365 0.67600006 7425861
0.032833841 0.037108365 0.67600006 7294275
0.033622541 0.037163258 0.67700005 9205870
0.034362663 0.037163258 0.67700005 11311246
0.035102792 0.037163258 0.67700005 9668737
0.035842918 0.037163258 0.67700005 7300189
0.036583044 0.037163258 0.67700005 8085072
0.037323173 0.037163258 0.67700005 8216658
0.038063299 0.037163258 0.67700005 8543299
0.038803425 0.037163258 0.67700005 9530194
0.03954355 0.037163258 0.67700005 9597782
0.040224176 0.037108365 0.67600006 8018750
0.040842012 0.036998574 0.67400002 7892299
0.041578859 0.036998574 0.67400002 5655337
0.042315707 0.036998574 0.67400002 4013338
0.042988677 0.036943682 0.67300004 7566160
0.043724433 0.036943682 0.67300004 7304775
0.044394121 0.036888789 0.67200005 6054708
0.045128781 0.036888789 0.67200005 8818264
0.045795191 0.036833894 0.671 10660468
0.04652876 0.036833894 0.671 11182447
0.047191892 0.036778998 0.67000002 9077071
0.047924362 0.036778998 0.67000002 8939577
0.048656836 0.036778998 0.67000002 9926472
0.04938931 0.036778998 0.67000002 10912599
-0.032439418 0.039024908 0.69700003 6776126
-0.031677429 0.039024908 0.69700003 3815441
-0.030915435 0.039024908 0.69700003 5324321
-0.030153444 0.039024908 0.69700003 5850665
-0.029433619 0.039080899 0.69800001 5979687
-0.028670536 0.039080899 0.69800001 5584929
-0.027907452 0.039080899 0.69800001 5716778
-0.027144369 0.039080899 0.69800001 4927262
-0.026381282 0.039080899 0.69800001 2957081
-0.025654901 0.03913689 0.69900006 3088667
-0.024926333 0.039192881 0.70000005 2698283
-0.024195576 0.039248869 0.70100003 2764076
-0.023429213 0.039248869 0.70100003 2962740
-0.022662846 0.039248869 0.70100003 3291705
-0.02192772 0.039304856 0.70200002 4143924
-0.021160262 0.039304856 0.70200002 4209717
-0.020421853 0.039360847 0.70300001 4799283
-0.01968126 0.039416838 0.70400006 4272939
0.0088330507 0.039584808 0.70700002 1777181
0.009605974 0.039584808 0.70700002 1514009
0.010334858 0.039416838 0.70400006 1840915
0.011057182 0.039248869 0.70100003 3748912
0.011772946 0.039080899 0.69800001 7103826
0.012482151 0.03891293 0.69500005 9932925
0.013241956 0.03891293 0.69500005 10328194
0.013961467 0.038800951 0.69300002 6841165
0.014655367 0.038632981 0.69000006 3286035
0.015409705 0.038632981 0.69000006 2957070
0.016117191 0.038520999 0.68800002 3939852
0.016844824 0.038465012 0.68700004 5518884
0.017595883 0.038465012 0.68700004 6307618
0.018266823 0.038297042 0.68400002 6176032
0.018959004 0.038185064 0.68200004 6569248
0.019675706 0.038129073 0.68100005 6569248
0.020420207 0.038129073 0.68100005 6634017
0.021133626 0.038073082 0.68000001 6699810
0.021844858 0.03801709 0.67900002 6766384
0.022587173 0.03801709 0.67900002 5516317
0.023260769 0.037905112 0.67700005 3412490
0.024000894 0.037905112 0.67700005 3675662
0.02474102 0.037905112 0.67700005 4860452
0.025481148 0.037905112 0.67700005 6702656
0.026221275 0.037905112 0.67700005 7031105
0.026961401 0.037905112 0.67700005 6965312
0.02766061 0.037849125 0.67600006 6506823
0.028399643 0.037849125 0.67600006 9006957
0.029138677 0.037849125 0.67600006 10851991
0.029877709 0.037849125 0.67600006 9930889
0.030616743 0.037849125 0.67600006 7428697
0.031355776 0.037849125 0.67600006 6902353
0.03209481 0.037849125 0.67600006 7425861
0.032833841 0.037849125 0.67600006 7294275
0.033572875 0.037849125 0.67600006 9205870
0.034311909 0.037849125 0.67600006 11311246
0.035050943 0.037849125 0.67600006 9668737
0.035789978 0.037849125 0.67600006 7300189
0.036529008 0.037849125 0.67600006 8085072
0.037268043 0.037849125 0.67600006 8216658
0.038007073 0.037849125 0.67600006 8543299
0.038746107 0.037849125 0.67600006 9530194
0.039485142 0.037849125 0.67600006 9597782
0.040224176 0.037849125 0.67600006 8018750
0.040842012 0.037737142 0.67400002 7892299
0.041578859 0.037737142 0.67400002 5655337
0.042315707 0.037737142 0.67400002 4013338
0.042988677 0.037681155 0.67300004 7566160
0.043724433 0.037681155 0.67300004 7304775
0.044394121 0.037625164 0.67200005 6054708
0.045061622 0.037569173 0.671 8818264
0.045795191 0.037569173 0.671 10660468
0.04652876 0.037569173 0.671 11182447
0.047191892 0.037513182 0.67000002 9077071
0.047852833 0.037457194 0.66900003 8939577
0.048584215 0.037457194 0.66900003 9926472
0.049315598 0.037457194 0.66900003 10912599
0.05004698 0.037457194 0.66900003 9728325
0.050854258 0.037513182 0.67000002 5059598
0.051586732 0.037513182 0.67000002 4796426
-0.032439418 0.039788682 0.69700003 7435339
-0.031677429 0.039788682 0.69700003 3553552
-0.030915435 0.039788682 0.69700003 4930594
-0.030153444 0.039788682 0.69700003 4930594
-0.029433619 0.039845768 0.69800001 5323301
-0.028670536 0.039845768 0.69800001 4599578
-0.027907452 0.039845768 0.69800001 5060649
-0.027144369 0.039845768 0.69800001 4139547
-0.026381282 0.039845768 0.69800001 3351839
-0.025654901 0.039902855 0.69900006 2759702
-0.024961941 0.040017027 0.70100003 2435111
-0.024195576 0.040017027 0.70100003 2829869
-0.023429213 0.040017027 0.70100003 2567982
-0.022695176 0.04007411 0.70200002 3094326
-0.02192772 0.04007411 0.70200002 3750454
-0.021160262 0.04007411 0.70200002 3816247
-0.020421853 0.040131196 0.70300001 3879469
0.011705479 0.039617423 0.69400001 4008986
0.012410311 0.039446171 0.69100004 4074779
0.013165743 0.039446171 0.69100004 6247735
0.013840589 0.039217826 0.68700004 9603178
0.014527928 0.039046571 0.68400002 9407598
0.015275707 0.039046571 0.68400002 5460018
0.015976634 0.038932398 0.68200004 3022343
0.016697709 0.038875315 0.68100005 3548687
0.017442208 0.038875315 0.68100005 5518368
0.01816 0.038818225 0.68000001 6176298
0.018875606 0.038761143 0.67900002 6503462
0.019617919 0.038761143 0.67900002 6635048
0.020330248 0.038704056 0.67800003 6699558
0.021071468 0.038704056 0.67800003 6831144
0.021780515 0.03864697 0.67700005 6174247
0.022520643 0.03864697 0.67700005 5318938
0.023260769 0.03864697 0.67700005 3346697
0.024000894 0.03864697 0.67700005 3873041
0.02474102 0.03864697 0.67700005 4532000
0.025481148 0.03864697 0.67700005 6637376
0.026221275 0.03864697 0.67700005 6964794
0.026961401 0.03864697 0.67700005 7227966
0.02766061 0.038589887 0.67600006 7358269
0.028399643 0.038589887 0.67600006 6897718
0.029138677 0.038589887 0.67600006 7559509
0.029877709 0.038589887 0.67600006 10454401
0.03057145 0.038532797 0.67500001 10720657
0.031309389 0.038532797 0.67500001 8812660
0.032047331 0.038532797 0.67500001 6836808
0.032785267 0.038532797 0.67500001 7297359
0.033572875 0.038589887 0.67600006 7690064
0.034311909 0.038589887 0.67600006 7755857
0.034999087 0.038532797 0.67500001 9799042
0.03573703 0.038532797 0.67500001 11114902
0.036474969 0.038532797 0.67500001 8615797
0.037212908 0.038532797 0.67500001 6905179
0.037950847 0.038532797 0.67500001 7955023
0.038746107 0.038589887 0.67600006 7560265
0.039485142 0.038589887 0.67600006 9468764
0.040224176 0.038589887 0.67600006 8613455
0.040842012 0.038475715 0.67400002 6972226
0.041578859 0.038475715 0.67400002 5130022
0.042315707 0.038475715 0.67400002 3554070
0.042988677 0.038418628 0.67300004 5922618
0.043724433 0.038418628 0.67300004 8752476
0.044394121 0.038361542 0.67200005 6449721
0.045061622 0.038304456 0.671 5330983
0.045795191 0.038304456 0.671 8225875
0.04652876 0.038304456 0.671 11053691
0.047191892 0.038247369 0.67000002 11119484
0.047852833 0.038190287 0.66900003 9864540
0.048584215 0.038190287 0.66900003 8417094
0.049315598 0.038190287 0.66900003 10781796
0.05004698 0.038190287 0.66900003 9136971
0.050854258 0.038247369 0.67000002 5060370
0.051586732 0.038247369 0.67000002 5257749
-0.032392874 0.040494274 0.69600004 7238987
-0.03163198 0.040494274 0.69600004 3159821
-0.03087108 0.040494274 0.69600004 4273695
-0.030153444 0.040552452 0.69700003 3681558
-0.029391453 0.040552452 0.69700003 4073754
-0.028629461 0.040552452 0.69700003 4139547
-0.027907452 0.040610634 0.69800001 4534567
-0.027144369 0.040610634 0.69800001 3679258
-0.026381282 0.040610634 0.69800001 3089437
-0.025654901 0.040668819 0.69900006 2563093
0.011705479 0.040377907 0.69400001 3877400
0.012410311 0.040203366 0.69100004 3153677
0.013165743 0.040203366 0.69100004 4140563
0.013719711 0.039621554 0.68100005 7101248
0.01442173 0.039505187 0.67900002 9340776
0.015164043 0.039505187 0.67900002 9472362
0.01588293 0.039447006 0.67800003 4801321
0.016624149 0.039447006 0.67800003 2695945
0.017442208 0.039621554 0.68100005 4137998
0.01816 0.039563369 0.68000001 5519651
0.018875606 0.039505187 0.67900002 6832429
0.019617919 0.039505187 0.67900002 6635050
0.020330248 0.039447006 0.67800003 6568742
0.021071468 0.039447006 0.67800003 6700328
0.021780515 0.039388828 0.67700005 6305833
0.022520643 0.039388828 0.67700005 5253145
0.023260769 0.039388828 0.67700005 3215881
0.024000894 0.039388828 0.67700005 3676432
0.02474102 0.039388828 0.67700005 3480082
0.025481148 0.039388828 0.67700005 5388079
0.026221275 0.039388828 0.67700005 6635316
0.026961401 0.039388828 0.67700005 7161660
0.02766061 0.039330646 0.67600006 7226935
0.028399643 0.039330646 0.67600006 7621693
0.029138677 0.039330646 0.67600006 6571070
0.029877709 0.039330646 0.67600006 8544860
0.03057145 0.039272461 0.67500001 10785935
0.031309389 0.039272461 0.67500001 10588556
0.032047331 0.039272461 0.67500001 8745834
0.032785267 0.039272461 0.67500001 6640458
0.033572875 0.039330646 0.67600006 7559248
0.034311909 0.039330646 0.67600006 7032904
0.034999087 0.039272461 0.67500001 7033937
0.03573703 0.039272461 0.67500001 10192001
0.036474969 0.039272461 0.67500001 10654610
0.037212908 0.039272461 0.67500001 7825511
0.037950847 0.039272461 0.67500001 7233617
0.038746107 0.039330646 0.67600006 6904652
0.039485142 0.039330646 0.67600006 8482899
0.040164668 0.039272461 0.67500001 8746071
0.040842012 0.03921428 0.67400002 6643775
0.041578859 0.03921428 0.67400002 4669985
0.042252924 0.039156102 0.67300004 3554327
0.042988677 0.039156102 0.67300004 5264945
0.043724433 0.039156102 0.67300004 8884066
0.044394121 0.03909792 0.67200005 6778690
0.045061622 0.039039735 0.671 5068070
0.045795191 0.039039735 0.671 6120758
0.04652876 0.039039735 0.671 9868651
0.047191892 0.038981553 0.67000002 11710855
0.047852833 0.038923375 0.66900003 11642500
0.048584215 0.038923375 0.66900003 10326640
0.049315598 0.038923375 0.66900003 10124898
0.05004698 0.038923375 0.66900003 8874831
0.050854258 0.038981553 0.67000002 4797198
0.051586732 0.038981553 0.67000002 6968367
0.052319206 0.038981553 0.67000002 8550990
-0.032392874 0.041256949 0.69600004 6977357
-0.03163198 0.041256949 0.69600004 2832398
-0.03087108 0.041256949 0.69600004 3419933
-0.030153444 0.041316226 0.69700003 3222554
-0.029391453 0.041316226 0.69700003 3351578
-0.028629461 0.041316226 0.69700003 3483164
-0.027907452 0.041375503 0.69800001 3811359
0.013719711 0.04036779 0.68100005 4994590
0.01442173 0.040249236 0.67900002 7234115
0.015164043 0.040249236 0.67900002 9800042
0.01588293 0.040189959 0.67800003 9407081
0.016599631 0.040130682 0.67700005 5327915
0.017339757 0.040130682 0.67700005 3351049
0.018079882 0.040130682 0.67700005 3614221
0.01879221 0.040071405 0.67600006 5846306
0.019531244 0.040071405 0.67600006 6306857
0.020270279 0.040071405 0.67600006 6437673
0.021009311 0.040071405 0.67600006 6503466
0.021780515 0.040130682 0.67700005 6503212
0.022520643 0.040130682 0.67700005 5318938
0.023260769 0.040130682 0.67700005 3479053
0.024000894 0.040130682 0.67700005 3413260
0.02474102 0.040130682 0.67700005 3677461
0.025481148 0.040130682 0.67700005 4466977
0.026221275 0.040130682 0.67700005 6043946
0.026961401 0.040130682 0.67700005 6701876
0.02766061 0.040071405 0.67600006 7489078
0.028399643 0.040071405 0.67600006 7489078
0.029138677 0.040071405 0.67600006 7292476
0.029877709 0.040071405 0.67600006 6897718
0.03057145 0.040012125 0.67500001 8284516
0.031309389 0.040012125 0.67500001 11047822
0.032047331 0.040012125 0.67500001 10129288
0.032785267 0.040012125 0.67500001 7958119
0.033523209 0.040012125 0.67500001 6639945
0.034261148 0.040012125 0.67500001 6310980
0.034999087 0.040012125 0.67500001 5519928
0.03573703 0.040012125 0.67500001 7493718
0.036474969 0.040012125 0.67500001 9932171
0.037212908 0.040012125 0.67500001 10261136
0.037950847 0.040012125 0.67500001 8551535
0.03868879 0.040012125 0.67500001 6577745
0.039426729 0.040012125 0.67500001 7366988
0.040164668 0.040012125 0.67500001 8551262
0.040842012 0.039952848 0.67400002 6841669
0.041578859 0.039952848 0.67400002 4670500
0.042252924 0.039893571 0.67300004 3488538
0.042988677 0.039893571 0.67300004 5001777
0.043724433 0.039893571 0.67300004 8489572
0.044394121 0.039834294 0.67200005 6318403
0.045128781 0.039834294 0.67200005 5001768
0.045795191 0.039775018 0.671 4870182
0.04652876 0.039775018 0.671 7301957
0.047191892 0.039715741 0.67000002 11315330
0.047924362 0.039715741 0.67000002 12761494
0.048656836 0.039715741 0.67000002 12432529
0.04938931 0.039715741 0.67000002 11179130
0.050121788 0.039715741 0.67000002 8481617
0.050854258 0.039715741 0.67000002 4864024
0.051586732 0.039715741 0.67000002 5785126
0.052319206 0.039715741 0.67000002 6247987
0.053130861 0.039775018 0.671 6050608
0.0094701052 0.04208 0.69700003 1974043
0.010232097 0.04208 0.69700003 2168849
0.012176832 0.040932912 0.67800003 3811609
0.012918051 0.040932912 0.67800003 4007182
0.013578685 0.04069142 0.67400002 4665112
0.014315532 0.04069142 0.67400002 5193249
0.015052378 0.04069142 0.67400002 8088141
0.015765799 0.040631048 0.67300004 9933163
0.016501553 0.040631048 0.67300004 9472612
0.017237306 0.040631048 0.67300004 5392424
0.01797306 0.040631048 0.67300004 3089669
0.018736612 0.04069142 0.67400002 4203278
0.019473458 0.04069142 0.67400002 5387552
0.020210305 0.04069142 0.67400002 6043431
0.020947153 0.04069142 0.67400002 5846052
0.021748343 0.040812168 0.67600006 5911847
0.022487378 0.040812168 0.67600006 5385503
0.02322641 0.040812168 0.67600006 3808531
0.024000894 0.04087254 0.67700005 3347980
0.02474102 0.04087254 0.67700005 3480597
0.025481148 0.04087254 0.67700005 4796457
0.026221275 0.04087254 0.67700005 6109739
0.026961401 0.04087254 0.67700005 6241325
0.027701529 0.04087254 0.67700005 7225906
0.028399643 0.040812168 0.67600006 7357492
0.029138677 0.040812168 0.67600006 7423803
0.029877709 0.040812168 0.67600006 7423803
0.03057145 0.040751792 0.67500001 6309183
0.031309389 0.040751792 0.67500001 9533040
0.03209481 0.040812168 0.67600006 10589841
0.032785267 0.040751792 0.67500001 9800325
0.033523209 0.040751792 0.67500001 7892328
0.034261148 0.040751792 0.67500001 5326401
0.034999087 0.040751792 0.67500001 5060149
0.03573703 0.040751792 0.67500001 5191735
0.036474969 0.040751792 0.67500001 8418418
0.037212908 0.040751792 0.67500001 10458001
0.037950847 0.040751792 0.67500001 10131085
0.03868879 0.040751792 0.67500001 8552053
0.039426729 0.040751792 0.67500001 7301970
0.040164668 0.040751792 0.67500001 8157279
0.040842012 0.04069142 0.67400002 6974540
0.041578859 0.04069142 0.67400002 4474406
0.042315707 0.04069142 0.67400002 3160343
0.043052554 0.04069142 0.67400002 4541996
0.043724433 0.040631048 0.67300004 8160357
0.044460181 0.040631048 0.67300004 7831392
0.045128781 0.040570676 0.67200005 6251585
0.045863442 0.040570676 0.67200005 5396276
0.046598103 0.040570676 0.67200005 5920304
0.047262326 0.040510301 0.671 10394228
0.047995891 0.040510301 0.671 11906955
0.048729457 0.040510301 0.671 10393716
0.04938931 0.040449925 0.67000002 10917240
0.050121788 0.040449925 0.67000002 8153934
0.050930157 0.040510301 0.671 4930079
0.051663727 0.040510301 0.671 6245939
0.052397292 0.040510301 0.671 7497550
0.053130861 0.040510301 0.671 5523760
0.0093885837 0.042474959 0.69100004 2039579
0.010144015 0.042474959 0.69100004 1906190
0.010757486 0.041921739 0.68200004 2103569
0.011503079 0.041921739 0.68200004 3878174
0.012176832 0.041675862 0.67800003 3746588
0.012918051 0.041675862 0.67800003 4204820
0.013578685 0.041429985 0.67400002 5125922
0.014315532 0.041429985 0.67400002 4928280
0.014940714 0.041122641 0.66900003 5652003
0.015672095 0.041122641 0.66900003 8484436
0.016427994 0.041184112 0.67000002 10260847
0.017160468 0.041184112 0.67000002 9276262
0.017892942 0.041184112 0.67000002 5591854
0.018681014 0.041307051 0.67200005 3482121
0.019444566 0.041368518 0.67300004 4074258
0.02018032 0.041368518 0.67300004 5452321
0.020947153 0.041429985 0.67400002 5649700
0.02171617 0.041491456 0.67500001 5386278
0.022487378 0.041552927 0.67600006 4991520
0.02322641 0.041552927 0.67600006 3480082
0.023965444 0.041552927 0.67600006 3480082
0.02474102 0.041614395 0.67700005 2757644
0.025481148 0.041614395 0.67700005 4665641
0.026221275 0.041614395 0.67700005 6176562
0.026961401 0.041614395 0.67700005 5387046
0.027701529 0.041614395 0.67700005 6305320
0.028441653 0.041614395 0.67700005 6897457
0.029138677 0.041552927 0.67600006 7554617
0.029877709 0.041552927 0.67600006 7686203
0.030616743 0.041552927 0.67600006 6702140
0.031355776 0.041552927 0.67600006 6965312
0.03209481 0.041552927 0.67600006 9009785
0.032833841 0.041552927 0.67600006 10851989
0.033572875 0.041552927 0.67600006 10064791
0.034311909 0.041552927 0.67600006 6577762
0.035050943 0.041552927 0.67600006 4863545
0.03573703 0.041491456 0.67500001 4468787
0.036474969 0.041491456 0.67500001 6639695
0.037212908 0.041491456 0.67500001 9468794
0.037950847 0.041491456 0.67500001 10131085
0.03868879 0.041491456 0.67500001 10131085
0.039426729 0.041491456 0.67500001 9145977
0.040164668 0.041491456 0.67500001 6843222
0.040902607 0.041491456 0.67500001 5593151
0.04164055 0.041491456 0.67500001 4014119
0.042378489 0.041491456 0.67500001 2962458
0.043116428 0.041491456 0.67500001 4738869
0.043789402 0.041429985 0.67400002 8094316
0.044526245 0.041429985 0.67400002 9278590
0.045263093 0.041429985 0.67400002 9672051
0.045863442 0.041307051 0.67200005 8356191
0.046598103 0.041307051 0.67200005 7170371
0.047262326 0.04124558 0.671 10328435
0.047995891 0.04124558 0.671 10130542
0.048729457 0.04124558 0.671 9077854
0.04938931 0.041184112 0.67000002 10984570
0.050121788 0.041184112 0.67000002 7958092
0.050930157 0.04124558 0.671 4864799
0.051663727 0.04124558 0.671 7233347
0.052397292 0.04124558 0.671 9800053
0.053130861 0.04124558 0.671 8747365
0.0093885837 0.043232154 0.69100004 1775637
0.010144015 0.043232154 0.69100004 1577227
0.010757486 0.042669073 0.68200004 3353638
0.011503079 0.042669073 0.68200004 5588792
0.014940714 0.04185573 0.66900003 4861206
0.015672095 0.04185573 0.66900003 5654567
0.016427994 0.041918296 0.67000002 9075803
0.017160468 0.041918296 0.67000002 9999983
0.017892942 0.041918296 0.67000002 9276260
0.018681014 0.042043429 0.67200005 4669471
0.019444566 0.042105991 0.67300004 2827267
0.02018032 0.042105991 0.67300004 4598295
0.020947153 0.042168554 0.67400002 5256225
0.02171617 0.04223112 0.67500001 5387050
0.022487378 0.042293686 0.67600006 4794913
0.02322641 0.042293686 0.67600006 3152402
0.023965444 0.042293686 0.67600006 3152402
0.02474102 0.042356249 0.67700005 3020816
0.025481148 0.042356249 0.67700005 4534055
0.026221275 0.042356249 0.67700005 6177077
0.026961401 0.042356249 0.67700005 5453354
0.027701529 0.042356249 0.67700005 5582882
0.028441653 0.042356249 0.67700005 5911847
0.029138677 0.042293686 0.67600006 7358008
0.029877709 0.042293686 0.67600006 7489594
0.030616743 0.042293686 0.67600006 7161914
0.031355776 0.042293686 0.67600006 7161914
0.03209481 0.042293686 0.67600006 6639693
0.032833841 0.042293686 0.67600006 9731964
0.033572875 0.042293686 0.67600006 10788514
0.034311909 0.042293686 0.67600006 9472654
0.035050943 0.042293686 0.67600006 6444379
0.03573703 0.04223112 0.67500001 4075831
0.036474969 0.04223112 0.67500001 5849665
0.037212908 0.04223112 0.67500001 7362904
0.037950847 0.04223112 0.67500001 9602174
0.03868879 0.04223112 0.67500001 10523276
0.039426729 0.04223112 0.67500001 10198670
0.040164668 0.04223112 0.67500001 7566950
0.040902607 0.04223112 0.67500001 4409138
0.04164055 0.04223112 0.67500001 3948587
0.042378489 0.04223112 0.67500001 3028253
0.043116428 0.04223112 0.67500001 3883562
0.043789402 0.042168554 0.67400002 5658951
0.044526245 0.042168554 0.67400002 6843225
0.045263093 0.042168554 0.67400002 8683621
0.04599994 0.042168554 0.67400002 10328446
0.046736788 0.042168554 0.67400002 10000237
0.047403201 0.042105991 0.67300004 10921339
0.04813895 0.042105991 0.67300004 8684375
0.048874706 0.042105991 0.67300004 9276512
0.049610458 0.042105991 0.67300004 10985851
0.050271407 0.042043429 0.67200005 8683096
0.051006064 0.042043429 0.67200005 4668188
0.051817719 0.042105991 0.67300004 4865567
0.052475385 0.042043429 0.67200005 9734260
0.053210046 0.042043429 0.67200005 11050120
0.0093885837 0.043989353 0.69100004 1183500
0.010144015 0.043989353 0.69100004 3091495
0.010757486 0.043416411 0.68200004 5723215
0.011300678 0.042652484 0.67000002 6246981
0.012033152 0.042652484 0.67000002 3681054
0.012708467 0.042461503 0.66700006 3941650
0.013417513 0.042397842 0.66600001 4665373
0.014145615 0.042397842 0.66600001 4992794
0.014873715 0.042397842 0.66600001 4598036
0.015601816 0.042397842 0.66600001 4271887
0.016354436 0.042461503 0.66700006 5850919
0.017109243 0.042525165 0.66800004 8881243
0.01783953 0.042525165 0.66800004 10065517
0.018625414 0.042652484 0.67000002 9014112
0.01938678 0.042716142 0.671 4474395
0.020120349 0.042716142 0.671 3219209
0.020884996 0.042779807 0.67200005 4008725
0.021683998 0.042907126 0.67400002 4665123
0.022454111 0.042970784 0.67500001 4336158
0.02319205 0.042970784 0.67500001 2889490
0.023965444 0.043034449 0.67600006 3152662
0.02474102 0.043098107 0.67700005 2758158
0.025481148 0.043098107 0.67700005 3942432
0.026221275 0.043098107 0.67700005 5519919
0.026961401 0.043098107 0.67700005 5585712
0.027701529 0.043098107 0.67700005 5715241
0.028441653 0.043098107 0.67700005 5123104
0.02918178 0.043098107 0.67700005 6042150
0.029921906 0.043098107 0.67700005 7358010
0.030616743 0.043034449 0.67600006 7621695
0.031355776 0.043034449 0.67600006 7490109
0.03209481 0.043034449 0.67600006 6374976
0.032833841 0.043034449 0.67600006 7296078
0.033572875 0.043034449 0.67600006 9668750
0.034311909 0.043034449 0.67600006 10853024
0.035050943 0.043034449 0.67600006 8419714
0.035789978 0.043034449 0.67600006 4735306
0.036529008 0.043034449 0.67600006 5192510
0.037268043 0.043034449 0.67600006 6310991
0.037950847 0.042970784 0.67500001 6903376
0.03868879 0.042970784 0.67500001 9469303
0.039426729 0.042970784 0.67500001 9934987
0.040164668 0.042970784 0.67500001 9474436
0.040902607 0.042970784 0.67500001 4738621
0.041702241 0.043034449 0.67600006 3488554
0.042504057 0.043098107 0.67700005 2962210
0.043244183 0.043098107 0.67700005 3028003
0.043984309 0.043098107 0.67700005 3553320
0.044724435 0.043098107 0.67700005 5329731
0.04546456 0.043098107 0.67700005 8222559
0.04620469 0.043098107 0.67700005 8551524
0.046944816 0.043098107 0.67700005 10657400
0.047614507 0.043034449 0.67600006 10591607
0.048282005 0.042970784 0.67500001 7105343
0.049019948 0.042970784 0.67500001 8684375
0.049684174 0.042907126 0.67400002 10789751
0.050421022 0.042907126 0.67400002 9868649
0.051157866 0.042907126 0.67400002 6445882
0.051971707 0.042970784 0.67500001 6380089
0.052709647 0.042970784 0.67500001 8747365
0.053447589 0.042970784 0.67500001 10326397
0.011233211 0.043127645 0.66600001 3878435
0.011961312 0.043127645 0.66600001 3154712
0.012632255 0.042933378 0.66300005 4204568
0.013336929 0.042868622 0.66200006 4533533
0.014060657 0.042868622 0.66200006 4795415
0.014784385 0.042868622 0.66200006 4663829
0.015531538 0.042933378 0.66300005 4467731
0.016280878 0.042998135 0.66400003 4270352
0.017006792 0.042998135 0.66400003 5788458
0.017786117 0.043127645 0.66600001 9472866
0.018569818 0.043257158 0.66800004 10066796
0.019357888 0.043386672 0.67000002 8487764
0.020090364 0.043386672 0.67000002 4143127
0.020853916 0.043451425 0.671 2564096
0.021651827 0.043580938 0.67300004 3811611
0.022420846 0.043645695 0.67400002 3877404
0.023157692 0.043645695 0.67400002 2693396
0.023929991 0.043710452 0.67500001 2890775
0.02474102 0.043839965 0.67700005 2429452
0.025481148 0.043839965 0.67700005 3153175
0.029224886 0.043904722 0.67800003 5450526
0.029966103 0.043904722 0.67800003 6371628
0.030662034 0.043839965 0.67700005 7292728
0.031402159 0.043839965 0.67700005 7292728
0.032142285 0.043839965 0.67700005 7096898
0.032882411 0.043839965 0.67700005 6899519
0.033572875 0.043775208 0.67600006 7035744
0.034311909 0.043775208 0.67600006 10193808
0.035050943 0.043775208 0.67600006 10722469
0.035789978 0.043775208 0.67600006 8880265
0.036529008 0.043775208 0.67600006 5719888
0.037268043 0.043775208 0.67600006 6114646
0.037950847 0.043710452 0.67500001 6310476
0.03868879 0.043710452 0.67500001 7099992
0.039485142 0.043775208 0.67600006 8749945
