# .PCD v0.7 - Point Cloud Data file format
VERSION 0.7
FIELDS x y z rgb
SIZE 4 4 4 4
TYPE F F F U
COUNT 1 1 1 1
WIDTH 1113
HEIGHT 1
VIEWPOINT 0 0 0 1 0 0 0
POINTS 1113
DATA ascii
-0.15444134 0.077291049 0.52600002 13435741
-0.15386629 0.077291049 0.52600002 13435741
-0.15329124 0.077291049 0.52600002 13238621
-0.1527162 0.077291049 0.52600002 12386384
-0.1524304 0.077437989 0.52700001 14957196
-0.15185426 0.077437989 0.52700001 16602021
-0.15127811 0.077437989 0.52700001 15951275
-0.15070197 0.077437989 0.52700001 14701208
-0.15012583 0.077437989 0.52700001 11796557
-0.14954969 0.077437989 0.52700001 12124242
-0.14897355 0.077437989 0.52700001 12911182
-0.14867899 0.07758493 0.528 12845389
-0.14780395 0.077731878 0.52900004 12845639
-0.14722562 0.077731878 0.52900004 12649287
-0.14720173 0.078025758 0.53100002 12583494
-0.14689733 0.078172699 0.53200001 11536712
-0.14631572 0.078172699 0.53200001 11734091
-0.14573412 0.078172699 0.53200001 9972305
-0.1456982 0.078466579 0.53400004 11419751
-0.14511442 0.078466579 0.53400004 9325666
-0.14453062 0.078466579 0.53400004 9523045
-0.14394683 0.078466579 0.53400004 9983596
-0.14389996 0.07876046 0.53600001 10115182
-0.14331399 0.07876046 0.53600001 8664656
-0.14272802 0.07876046 0.53600001 8796242
-0.14240722 0.0789074 0.537 10709631
-0.14182013 0.0789074 0.537 11038596
-0.14149609 0.079054348 0.53800005 9399931
-0.14169365 0.079495169 0.54100001 11768479
-0.14110221 0.079495169 0.54100001 10717842
-0.14051077 0.079495169 0.54100001 8941431
-0.2193896 0.080384076 0.54300004 11473746
-0.21879597 0.080384076 0.54300004 11537493
-0.21621573 0.080087997 0.54100001 11536214
-0.21562429 0.080087997 0.54100001 11928923
-0.21503285 0.080087997 0.54100001 11928923
-0.21364866 0.079791926 0.53900003 11993949
-0.2130594 0.079791926 0.53900003 11993949
-0.21168174 0.079495847 0.537 12125019
-0.21109466 0.079495847 0.537 12125019
-0.2105076 0.079495847 0.537 12190555
-0.20952962 0.079347812 0.53600001 12190555
-0.20855382 0.079199776 0.53500003 12321369
-0.20796894 0.079199776 0.53500003 12387162
-0.20699641 0.07905174 0.53400004 12387162
-0.20602609 0.078903705 0.53300005 12387162
-0.2054434 0.078903705 0.53300005 12517978
-0.20447633 0.078755662 0.53200001 12517978
-0.2038947 0.078755662 0.53200001 12517978
-0.20331311 0.078755662 0.53200001 12517978
-0.20273151 0.078755662 0.53200001 12517978
-0.20176992 0.078607626 0.53100002 12517978
-0.20118941 0.078607626 0.53100002 12518232
-0.20060889 0.078607626 0.53100002 12518232
-0.20002837 0.078607626 0.53100002 12452439
-0.19944787 0.078607626 0.53100002 12452439
-0.19886737 0.078607626 0.53100002 12452437
-0.19828685 0.078607626 0.53100002 12452437
-0.19770633 0.078607626 0.53100002 12452437
-0.19712581 0.078607626 0.53100002 12452437
-0.1965453 0.078607626 0.53100002 12452437
-0.1959648 0.078607626 0.53100002 12452437
-0.19575223 0.078755662 0.53200001 12452437
-0.19517061 0.078755662 0.53200001 12452437
-0.19458902 0.078755662 0.53200001 12452437
-0.1943721 0.078903705 0.53300005 12518230
-0.19415298 0.07905174 0.53400004 12518230
-0.19320671 0.078903705 0.53300005 12518230
-0.19262402 0.078903705 0.53300005 12518230
-0.1924016 0.07905174 0.53400004 12518230
-0.19181781 0.07905174 0.53400004 12583510
-0.19123402 0.07905174 0.53400004 12583510
-0.19100726 0.079199776 0.53500003 12583510
-0.1907783 0.079347812 0.53600001 12649303
-0.1901923 0.079347812 0.53600001 12583510
-0.18960632 0.079347812 0.53600001 12649303
-0.18902035 0.079347812 0.53600001 12649303
-0.18808281 0.079199776 0.53500003 12649303
-0.18749794 0.079199776 0.53500003 12649305
-0.18691304 0.079199776 0.53500003 12649305
-0.18563162 0.078903705 0.53300005 12649051
-0.18470171 0.078755662 0.53200001 12583258
-0.18412012 0.078755662 0.53200001 12583258
-0.18319352 0.078607626 0.53100002 12583258
-0.1822691 0.078459591 0.53000003 12649051
-0.18134686 0.078311555 0.52900004 12649051
-0.18042681 0.078163512 0.528 12649051
-0.17984958 0.078163512 0.528 12649051
-0.17961191 0.078311555 0.52900004 12649051
-0.17461732 0.077127255 0.52100003 12583512
-0.17404774 0.077127255 0.52100003 12583512
-0.17058542 0.076090999 0.514 12649305
-0.16936193 0.075794928 0.51200002 12780637
-0.16880219 0.075794928 0.51200002 12780637
-0.16758527 0.075498857 0.51000005 12911453
-0.16637269 0.075202778 0.50800002 12977246
-0.16581731 0.075202778 0.50800002 13042526
-0.16493663 0.075054742 0.50700003 13108319
-0.16405813 0.074906707 0.50600004 13305184
-0.16350496 0.074906707 0.50600004 13239391
-0.16262972 0.074758664 0.505 13108321
-0.16175668 0.074610628 0.50400001 12976735
-0.16120569 0.074610628 0.50400001 11471702
-0.16065469 0.074610628 0.50400001 12655976
-0.15978605 0.074462593 0.50300002 11750769
-0.15923615 0.074462593 0.50300002 11224425
-0.15868624 0.074462593 0.50300002 9129303
-0.15876509 0.074758664 0.505 8931924
-0.15821302 0.074758664 0.505 9653599
-0.15897362 0.077275291 0.52200001 13304668
-0.15840293 0.077275291 0.52200001 13304668
-0.15783226 0.077275291 0.52200001 13369946
-0.15699109 0.077423327 0.523 13369946
-0.15641934 0.077423327 0.523 13304153
-0.15584755 0.077423327 0.523 13304153
-0.15586959 0.077719405 0.52500004 13304153
-0.15529564 0.077719405 0.52500004 13304666
-0.15472169 0.077719405 0.52500004 13304666
-0.15414773 0.077719405 0.52500004 13304666
-0.15357377 0.077719405 0.52500004 13304666
-0.15299982 0.077719405 0.52500004 12779610
-0.15242587 0.077719405 0.52500004 12779610
-0.15185192 0.077719405 0.52500004 16541361
-0.15127797 0.077719405 0.52500004 16744137
-0.150704 0.077719405 0.52500004 16747208
-0.15013005 0.077719405 0.52500004 15365298
-0.14984097 0.077867441 0.52600002 12127322
-0.14926593 0.077867441 0.52600002 11337806
-0.14869088 0.077867441 0.52600002 12780110
-0.14811583 0.077867441 0.52600002 12714317
-0.14782126 0.078015476 0.52700001 12845639
-0.14724514 0.078015476 0.52700001 12779846
-0.14694731 0.078163512 0.528 12583492
-0.1466473 0.078311555 0.52900004 12517699
-0.14606898 0.078311555 0.52900004 11668295
-0.14576566 0.078459591 0.53000003 11799881
-0.14546019 0.078607626 0.53100002 9577549
-0.14515251 0.078755662 0.53200001 11551339
-0.1445709 0.078755662 0.53200001 9194593
-0.14425997 0.078903705 0.53300005 8931421
-0.14394683 0.07905174 0.53400004 8735326
-0.1436315 0.079199776 0.53500003 9590635
-0.14304662 0.079199776 0.53500003 8600913
-0.14272802 0.079347812 0.53600001 8074569
-0.14240722 0.079495847 0.537 10446457
-0.14182013 0.079495847 0.537 11038594
-0.14149609 0.07964389 0.53800005 8544620
-0.2193896 0.080979094 0.54300004 11276113
-0.21879597 0.080979094 0.54300004 11471700
-0.21621573 0.080680825 0.54100001 11405398
-0.21562429 0.080680825 0.54100001 11732060
-0.21503285 0.080680825 0.54100001 11732060
-0.21364866 0.080382563 0.53900003 11993949
-0.2130594 0.080382563 0.53900003 11993949
-0.21168174 0.080084294 0.537 12125019
-0.21109466 0.080084294 0.537 12125019
-0.2105076 0.080084294 0.537 12124760
-0.20952962 0.079935163 0.53600001 12124760
-0.20855382 0.079786032 0.53500003 12190553
-0.20796894 0.079786032 0.53500003 12190553
-0.20699641 0.079636902 0.53400004 12321369
-0.20602609 0.079487771 0.53300005 12387162
-0.2054434 0.079487771 0.53300005 12387162
-0.20447633 0.079338625 0.53200001 12387162
-0.2038947 0.079338625 0.53200001 12387162
-0.20331311 0.079338625 0.53200001 12387162
-0.20235044 0.079189494 0.53100002 12387416
-0.20176992 0.079189494 0.53100002 12321623
-0.20118941 0.079189494 0.53100002 12452437
-0.20060889 0.079189494 0.53100002 12452437
-0.20002837 0.079189494 0.53100002 12452437
-0.19944787 0.079189494 0.53100002 12452437
-0.19886737 0.079189494 0.53100002 12452437
-0.19828685 0.079189494 0.53100002 12452437
-0.19770633 0.079189494 0.53100002 12452437
-0.19712581 0.079189494 0.53100002 12452437
-0.1965453 0.079189494 0.53100002 12452437
-0.1959648 0.079189494 0.53100002 12452437
-0.19575223 0.079338625 0.53200001 12452437
-0.19517061 0.079338625 0.53200001 12452437
-0.19458902 0.079338625 0.53200001 12452437
-0.1943721 0.079487771 0.53300005 12452437
-0.19415298 0.079636902 0.53400004 12452437
-0.19320671 0.079487771 0.53300005 12518230
-0.19262402 0.079487771 0.53300005 12452437
-0.1924016 0.079636902 0.53400004 12452437
-0.19181781 0.079636902 0.53400004 12452437
-0.19123402 0.079636902 0.53400004 12518230
-0.19100726 0.079786032 0.53500003 12518230
-0.1907783 0.079935163 0.53600001 12518230
-0.1901923 0.079935163 0.53600001 12583510
-0.18960632 0.079935163 0.53600001 12583510
-0.18902035 0.079935163 0.53600001 12583510
-0.18808281 0.079786032 0.53500003 12583510
-0.18749794 0.079786032 0.53500003 12583512
-0.18691304 0.079786032 0.53500003 12583512
-0.18563162 0.079487771 0.53300005 12583258
-0.18470171 0.079338625 0.53200001 12583258
-0.18377402 0.079189494 0.53100002 12583258
-0.18319352 0.079189494 0.53100002 12583258
-0.18192519 0.078891233 0.52900004 12583258
-0.18134686 0.078891233 0.52900004 12583258
-0.18042681 0.078742094 0.528 12583258
-0.17984958 0.078742094 0.528 12583258
-0.17541914 0.07754904 0.52000004 12583258
-0.17485066 0.07754904 0.52000004 12583258
-0.17428216 0.07754904 0.52000004 12583258
-0.17404774 0.077698171 0.52100003 12583258
-0.1695898 0.076206848 0.51100004 12649051
-0.16836958 0.075908571 0.509 12780637
-0.16781311 0.075908571 0.509 12780637
-0.16725665 0.075908571 0.509 12911453
-0.16571769 0.075461179 0.50600004 12977246
-0.1651645 0.075461179 0.50600004 13042526
-0.16428599 0.075312041 0.505 13108319
-0.1637339 0.075312041 0.505 13239391
-0.16253556 0.075013779 0.50300002 13239391
-0.16198565 0.075013779 0.50300002 13042526
-0.1611148 0.074864648 0.50200003 12976733
-0.160566 0.074864648 0.50200003 11142222
-0.15969844 0.074715517 0.50100005 12984426
-0.15915072 0.074715517 0.50100005 11553390
-0.15860301 0.074715517 0.50100005 11158632
-0.15805528 0.074715517 0.50100005 9129303
-0.15897362 0.077847302 0.52200001 13108059
-0.15567185 0.07650511 0.51300001 13108059
-0.15511101 0.07650511 0.51300001 13238873
-0.15699109 0.077996433 0.523 13238873
-0.15641934 0.077996433 0.523 13238873
-0.15584755 0.077996433 0.523 13238873
-0.15586959 0.078294702 0.52500004 13238873
-0.15529564 0.078294702 0.52500004 13238873
-0.15472169 0.078294702 0.52500004 13238873
-0.15414773 0.078294702 0.52500004 13108057
-0.15357377 0.078294702 0.52500004 13108057
-0.15299982 0.078294702 0.52500004 11796557
-0.15242587 0.078294702 0.52500004 13439334
-0.15185192 0.078294702 0.52500004 16611771
-0.15127797 0.078294702 0.52500004 16747983
-0.150704 0.078294702 0.52500004 16750283
-0.15013005 0.078294702 0.52500004 15434423
-0.14984097 0.078443833 0.52600002 12326496
-0.14926593 0.078443833 0.52600002 10616902
-0.14869088 0.078443833 0.52600002 12518221
-0.14811583 0.078443833 0.52600002 12452428
-0.14782126 0.078592964 0.52700001 12648774
-0.14724514 0.078592964 0.52700001 12648774
-0.14694731 0.078742094 0.528 12517699
-0.1466473 0.078891233 0.52900004 12517699
-0.14606898 0.078891233 0.52900004 11601730
-0.14576566 0.079040363 0.53000003 11404351
-0.14546019 0.079189494 0.53100002 9510473
-0.14515251 0.079338625 0.53200001 11352677
-0.1445709 0.079338625 0.53200001 9589867
-0.14425997 0.079487771 0.53300005 8010835
-0.14394683 0.079636902 0.53400004 7815507
-0.1436315 0.079786032 0.53500003 8539230
-0.14304662 0.079786032 0.53500003 8931674
-0.14272802 0.079935163 0.53600001 8010572
-0.14214204 0.079935163 0.53600001 10315892
-0.14155604 0.079935163 0.53600001 11368580
-0.14123307 0.080084294 0.537 8414055
-0.14090793 0.080233432 0.53800005 8085090
-0.14031976 0.080233432 0.53800005 8019810
-0.1397316 0.080233432 0.53800005 7361880
-0.13940205 0.080382563 0.53900003 7888215
-0.13822354 0.080382563 0.53900003 10324601
-0.13763428 0.080382563 0.53900003 9008741
-0.13620259 0.080233432 0.53800005 8746856
-0.13561442 0.080233432 0.53800005 7368042
-0.2195781 0.081423886 0.54200006 11144786
-0.21898557 0.081423886 0.54200006 11013200
-0.21839304 0.081423886 0.54200006 11405909
-0.2178005 0.081423886 0.54200006 11405909
-0.21680717 0.081273653 0.54100001 11405144
-0.21621573 0.081273653 0.54100001 11339351
-0.21562429 0.081273653 0.54100001 11666521
-0.21463539 0.081123427 0.54000002 11732314
-0.21325229 0.080822974 0.53800005 11863130
-0.21266411 0.080822974 0.53800005 11863130
-0.21168174 0.080672733 0.537 11928410
-0.21070157 0.080522507 0.53600001 11928410
-0.2101156 0.080522507 0.53600001 12059224
-0.20913871 0.080372281 0.53500003 12059224
-0.20816401 0.080222055 0.53400004 12190553
-0.20758021 0.080222055 0.53400004 12190553
-0.20660879 0.080071829 0.53300005 12190553
-0.20563953 0.079921596 0.53200001 12190553
-0.20505793 0.079921596 0.53200001 12321369
-0.20447633 0.079921596 0.53200001 12321369
-0.20351145 0.07977137 0.53100002 12321623
-0.20293094 0.07977137 0.53100002 12321623
-0.20235044 0.07977137 0.53100002 12321621
-0.20138995 0.079621144 0.53000003 12255828
-0.20081054 0.079621144 0.53000003 12255828
-0.20023111 0.079621144 0.53000003 12255828
-0.19965169 0.079621144 0.53000003 12255826
-0.19907227 0.079621144 0.53000003 12255826
-0.19886737 0.07977137 0.53100002 12255826
-0.19828685 0.07977137 0.53100002 12255826
-0.19770633 0.07977137 0.53100002 12256080
-0.19712581 0.07977137 0.53100002 12256080
-0.1965453 0.07977137 0.53100002 12255826
-0.1959648 0.07977137 0.53100002 12255826
-0.19575223 0.079921596 0.53200001 12255826
-0.19517061 0.079921596 0.53200001 12255826
-0.19458902 0.079921596 0.53200001 12255826
-0.19473678 0.080222055 0.53400004 12255826
-0.19415298 0.080222055 0.53400004 12255826
-0.1935692 0.080222055 0.53400004 12321619
-0.1929854 0.080222055 0.53400004 12321619
-0.1927619 0.080372281 0.53500003 12321619
-0.19217701 0.080372281 0.53500003 12321619
-0.19159213 0.080372281 0.53500003 12321619
-0.19100726 0.080372281 0.53500003 12321619
-0.19042237 0.080372281 0.53500003 12321619
-0.18983747 0.080372281 0.53500003 12518228
-0.18925259 0.080372281 0.53500003 12518228
-0.1886677 0.080372281 0.53500003 12518228
-0.18773127 0.080222055 0.53400004 12518228
-0.18714748 0.080222055 0.53400004 12518230
-0.18656367 0.080222055 0.53400004 12518230
-0.18563162 0.080071829 0.53300005 12518232
-0.18435454 0.07977137 0.53100002 12518232
-0.18377402 0.07977137 0.53100002 12517978
-0.18284853 0.079621144 0.53000003 12452185
-0.18192519 0.079470918 0.52900004 12452185
-0.18134686 0.079470918 0.52900004 12517978
-0.17848711 0.078719772 0.52400005 12517978
-0.17791425 0.078719772 0.52400005 12518232
-0.17632605 0.078269087 0.52100003 12518232
-0.17541914 0.078118861 0.52000004 12518232
-0.17485066 0.078118861 0.52000004 12518232
-0.17428216 0.078118861 0.52000004 12518232
-0.1695898 0.076766796 0.51100004 12584025
-0.16836958 0.076466337 0.509 12649305
-0.16781311 0.076466337 0.509 12649305
-0.16725665 0.076466337 0.509 12911707
-0.16571769 0.076015659 0.50600004 12977500
-0.1651645 0.076015659 0.50600004 12977500
-0.16428599 0.075865425 0.505 12977500
-0.1637339 0.075865425 0.505 13173852
-0.16253556 0.075564966 0.50300002 13173852
-0.16198565 0.075564966 0.50300002 13173598
-0.1611148 0.07541474 0.50200003 13107805
-0.160566 0.07541474 0.50200003 11600978
-0.15969844 0.075264513 0.50100005 12785252
-0.15915072 0.075264513 0.50100005 11223655
-0.15860301 0.075264513 0.50100005 11749999
-0.15805528 0.075264513 0.50100005 9261401
-0.15567185 0.077067256 0.51300001 12976987
-0.15511101 0.077067256 0.51300001 12976471
-0.15635781 0.077968627 0.51900005 12976471
-0.15579042 0.077968627 0.51900005 12976471
-0.15522303 0.077968627 0.51900005 12976471
-0.15554957 0.078419313 0.52200001 12976469
-0.1555727 0.078719772 0.52400005 12976469
-0.15499984 0.078719772 0.52400005 12976469
-0.15442698 0.078719772 0.52400005 12976469
-0.15385413 0.078719772 0.52400005 12845397
-0.15328126 0.078719772 0.52400005 12845397
-0.1527084 0.078719772 0.52400005 11337801
-0.15213554 0.078719772 0.52400005 13506922
-0.15156268 0.078719772 0.52400005 15166372
-0.15098983 0.078719772 0.52400005 16679611
-0.15041696 0.078719772 0.52400005 15764147
-0.1498441 0.078719772 0.52400005 14382494
-0.14927123 0.078719772 0.52400005 12131422
-0.14869837 0.078719772 0.52400005 10289218
-0.1484082 0.078869998 0.52500004 12452426
-0.14811583 0.079020225 0.52600002 12452426
-0.14754078 0.079020225 0.52600002 12583492
-0.14696573 0.079020225 0.52600002 12517699
-0.146669 0.079170451 0.52700001 12386881
-0.14637007 0.079320677 0.528 12321088
-0.14579284 0.079320677 0.528 11470142
-0.14549063 0.079470918 0.52900004 11338556
-0.14546019 0.07977137 0.53100002 10167887
-0.14515251 0.079921596 0.53200001 11483747
-0.1445709 0.079921596 0.53200001 9722223
-0.14425997 0.080071829 0.53300005 7945812
-0.14394683 0.080222055 0.53400004 7554134
-0.14336303 0.080222055 0.53400004 7817306
-0.14277925 0.080222055 0.53400004 8472918
-0.14246173 0.080372281 0.53500003 7814988
-0.14214204 0.080522507 0.53600001 9658727
-0.14155604 0.080522507 0.53600001 11040380
-0.14097007 0.080522507 0.53600001 8545895
-0.140646 0.080672733 0.537 7559000
-0.14005893 0.080672733 0.537 7955039
-0.13947186 0.080672733 0.537 6639179
-0.13888478 0.080672733 0.537 7361353
-0.13829771 0.080672733 0.537 10651003
-0.13771065 0.080672733 0.537 12165260
-0.13763428 0.080973201 0.53900003 9336161
-0.13569626 0.080522507 0.53600001 8810850
-0.13511027 0.080522507 0.53600001 7366498
-0.21917297 0.081866473 0.54100001 11078993
-0.21858153 0.081866473 0.54100001 10947407
-0.21799009 0.081866473 0.54100001 11340116
-0.21739864 0.081866473 0.54100001 11274323
-0.21680717 0.081866473 0.54100001 11404374
-0.21581608 0.081715152 0.54000002 11470167
-0.21522573 0.081715152 0.54000002 11535705
-0.21423791 0.08156383 0.53900003 11535705
-0.21285589 0.081261173 0.537 11863130
-0.2122688 0.081261173 0.537 11863130
-0.21128754 0.081109852 0.53600001 11928410
-0.21070157 0.081109852 0.53600001 11928410
-0.2101156 0.081109852 0.53600001 11928408
-0.2087478 0.080807209 0.53400004 11928408
-0.20816401 0.080807209 0.53400004 12059224
-0.20758021 0.080807209 0.53400004 12125017
-0.20660879 0.080655888 0.53300005 12190553
-0.20563953 0.080504552 0.53200001 12190553
-0.20505793 0.080504552 0.53200001 12190807
-0.20409198 0.08035323 0.53100002 12190807
-0.20351145 0.08035323 0.53100002 12190807
-0.20293094 0.08035323 0.53100002 12125014
-0.20196937 0.080201909 0.53000003 12125012
-0.20138995 0.080201909 0.53000003 12125012
-0.20081054 0.080201909 0.53000003 12059219
-0.20023111 0.080201909 0.53000003 12125012
-0.19965169 0.080201909 0.53000003 12059217
-0.19907227 0.080201909 0.53000003 12059217
-0.19886737 0.08035323 0.53100002 12059217
-0.19828685 0.08035323 0.53100002 12059217
-0.19770633 0.08035323 0.53100002 12059471
-0.19712581 0.08035323 0.53100002 12059471
-0.1965453 0.08035323 0.53100002 12125264
-0.1959648 0.08035323 0.53100002 12125264
-0.19575223 0.080504552 0.53200001 12125010
-0.19517061 0.080504552 0.53200001 12059217
-0.19458902 0.080504552 0.53200001 12059217
-0.19473678 0.080807209 0.53400004 12059217
-0.19415298 0.080807209 0.53400004 12125012
-0.1935692 0.080807209 0.53400004 12125012
-0.1929854 0.080807209 0.53400004 12125012
-0.1927619 0.08095853 0.53500003 12125012
-0.19217701 0.08095853 0.53500003 12255828
-0.19159213 0.08095853 0.53500003 12255828
-0.19100726 0.08095853 0.53500003 12255828
-0.19042237 0.08095853 0.53500003 12255828
-0.18983747 0.08095853 0.53500003 12321621
-0.18925259 0.08095853 0.53500003 12321621
-0.1886677 0.08095853 0.53500003 12387414
-0.18773127 0.080807209 0.53400004 12387414
-0.18714748 0.080807209 0.53400004 12321623
-0.18656367 0.080807209 0.53400004 12321623
-0.18563162 0.080655888 0.53300005 12321623
-0.18435454 0.08035323 0.53100002 12321623
-0.18377402 0.08035323 0.53100002 12321623
-0.18284853 0.080201909 0.53000003 12321623
-0.1822691 0.080201909 0.53000003 12321623
-0.17848711 0.079293966 0.52400005 12321623
-0.17791425 0.079293966 0.52400005 12321623
-0.17632605 0.078839988 0.52100003 12321623
-0.17541914 0.078688666 0.52000004 12518232
-0.17485066 0.078688666 0.52000004 12518232
-0.17260638 0.077932045 0.51500005 12518232
-0.17204337 0.077932045 0.51500005 12518232
-0.16925792 0.077175424 0.51000005 12584025
-0.16836958 0.077024095 0.509 12649305
-0.16781311 0.077024095 0.509 12649305
-0.16659947 0.076721445 0.50700003 12780121
-0.16571769 0.076570123 0.50600004 12911707
-0.16483808 0.076418795 0.505 12977500
-0.16396067 0.076267473 0.50400001 12977500
-0.16308546 0.076116152 0.50300002 13042780
-0.16253556 0.076116152 0.50300002 13042780
-0.16166362 0.075964831 0.50200003 13042780
-0.16079386 0.075813502 0.50100005 12976987
-0.16024615 0.075813502 0.50100005 11994966
-0.15969844 0.075813502 0.50100005 11797587
-0.15883304 0.075662173 0.5 11551337
-0.15828642 0.075662173 0.5 12077681
-0.15773979 0.075662173 0.5 9327964
-0.15391344 0.075662173 0.5 11013198
-0.15336682 0.075662173 0.5 12584025
-0.15373713 0.076116152 0.50300002 12584025
-0.15318723 0.076116152 0.50300002 12649305
-0.15385114 0.076721445 0.50700003 12649305
-0.15450631 0.077326745 0.51100004 12780119
-0.15485145 0.077780716 0.514 12780119
-0.15519005 0.078234687 0.51700002 12845399
-0.15462485 0.078234687 0.51700002 12845399
-0.15525158 0.078839988 0.52100003 12845397
-0.15527579 0.07914263 0.523 12779604
-0.15470402 0.07914263 0.523 12779604
-0.15413226 0.07914263 0.523 12779604
-0.15385413 0.079293966 0.52400005 12714324
-0.15328126 0.079293966 0.52400005 12714324
-0.1527084 0.079293966 0.52400005 11075656
-0.15213554 0.079293966 0.52400005 12389724
-0.15156268 0.079293966 0.52400005 12800123
-0.15098983 0.079293966 0.52400005 14576534
-0.15041696 0.079293966 0.52400005 14252431
-0.1498441 0.079293966 0.52400005 12936571
-0.14927123 0.079293966 0.52400005 11277390
-0.14869837 0.079293966 0.52400005 10093116
-0.1484082 0.079445288 0.52500004 12452424
-0.14783424 0.079445288 0.52500004 12452424
-0.14754078 0.079596609 0.52600002 12386881
-0.14696573 0.079596609 0.52600002 12321088
-0.146669 0.07974793 0.52700001 12189755
-0.14637007 0.079899251 0.528 12189755
-0.14579284 0.079899251 0.528 11535418
-0.14549063 0.080050588 0.52900004 11535418
-0.14518625 0.080201909 0.53000003 9180477
-0.14487967 0.08035323 0.53100002 11614818
-0.14429916 0.08035323 0.53100002 10182774
-0.14398931 0.080504552 0.53200001 8735328
-0.14367726 0.080655888 0.53300005 7424344
-0.14336303 0.080807209 0.53400004 7490137
-0.14277925 0.080807209 0.53400004 8014164
-0.14246173 0.08095853 0.53500003 7882578
-0.14214204 0.081109852 0.53600001 7752014
-0.14155604 0.081109852 0.53600001 9265253
-0.14097007 0.081109852 0.53600001 8281949
-0.14038409 0.081109852 0.53600001 7558226
-0.13979812 0.081109852 0.53600001 7757658
-0.13921215 0.081109852 0.53600001 6573384
-0.13862614 0.081109852 0.53600001 7163457
-0.13829771 0.081261173 0.537 11571588
-0.13771065 0.081261173 0.537 13217178
-0.13686822 0.081109852 0.53600001 10585458
-0.13628225 0.081109852 0.53600001 8348246
-0.13569626 0.081109852 0.53600001 8150867
-0.13511027 0.081109852 0.53600001 8087652
-0.21994856 0.082306884 0.54000002 10885462
-0.21935819 0.082306884 0.54000002 10424911
-0.21876784 0.082306884 0.54000002 10750544
-0.2181775 0.082306884 0.54000002 10618958
-0.21799009 0.082459301 0.54100001 11011153
-0.21739864 0.082459301 0.54100001 11076946
-0.21680717 0.082459301 0.54100001 11142226
-0.21581608 0.082306884 0.54000002 11273812
-0.21522573 0.082306884 0.54000002 11470167
-0.21423791 0.082154468 0.53900003 11470167
-0.21285589 0.08184962 0.537 11666519
-0.2122688 0.08184962 0.537 11666519
-0.21128754 0.081697203 0.53600001 11797335
-0.21070157 0.081697203 0.53600001 11797335
-0.2101156 0.081697203 0.53600001 11862615
-0.2087478 0.081392363 0.53400004 11928408
-0.20816401 0.081392363 0.53400004 11928408
-0.20758021 0.081392363 0.53400004 11928408
-0.20660879 0.081239946 0.53300005 12059224
-0.20563953 0.081087522 0.53200001 12059224
-0.20505793 0.081087522 0.53200001 12059478
-0.20409198 0.080935098 0.53100002 12059478
-0.20351145 0.080935098 0.53100002 12059478
-0.20293094 0.080935098 0.53100002 11993685
-0.20196937 0.080782682 0.53000003 11993683
-0.20138995 0.080782682 0.53000003 11993683
-0.20081054 0.080782682 0.53000003 11993683
-0.20023111 0.080782682 0.53000003 11993683
-0.19965169 0.080782682 0.53000003 11993681
-0.19907227 0.080782682 0.53000003 11927888
-0.19886737 0.080935098 0.53100002 11928142
-0.19828685 0.080935098 0.53100002 11928142
-0.19770633 0.080935098 0.53100002 11928142
-0.19712581 0.080935098 0.53100002 11928142
-0.1965453 0.080935098 0.53100002 11993935
-0.1959648 0.080935098 0.53100002 11993935
-0.19575223 0.081087522 0.53200001 11993681
-0.19517061 0.081087522 0.53200001 11993681
-0.19458902 0.081087522 0.53200001 11993683
-0.19473678 0.081392363 0.53400004 11993683
-0.19415298 0.081392363 0.53400004 11993683
-0.1935692 0.081392363 0.53400004 11993683
-0.1929854 0.081392363 0.53400004 12059476
-0.1924016 0.081392363 0.53400004 12059476
-0.19217701 0.081544787 0.53500003 12059217
-0.19159213 0.081544787 0.53500003 12059217
-0.19100726 0.081544787 0.53500003 12125010
-0.19042237 0.081544787 0.53500003 12125010
-0.18948264 0.081392363 0.53400004 12125010
-0.18889885 0.081392363 0.53400004 12190803
-0.18831506 0.081392363 0.53400004 12190803
-0.18737972 0.081239946 0.53300005 12190803
-0.18679702 0.081239946 0.53300005 12190805
-0.18621431 0.081239946 0.53300005 12125012
-0.18563162 0.081239946 0.53300005 12125012
-0.18366018 0.080630265 0.52900004 12125012
-0.18308185 0.080630265 0.52900004 12125012
-0.18250354 0.080630265 0.52900004 12125012
-0.1822691 0.080782682 0.53000003 12125012
-0.17905997 0.079868168 0.52400005 12125012
-0.17780584 0.07956332 0.52200001 12190805
-0.17723517 0.07956332 0.52200001 12321621
-0.17632605 0.079410903 0.52100003 12321621
-0.17406976 0.078648798 0.51600003 12452437
-0.17350565 0.078648798 0.51600003 12452437
-0.17193605 0.078191541 0.51300001 12518230
-0.17070711 0.077886701 0.51100004 12518230
-0.17014846 0.077886701 0.51100004 12518230
-0.16892603 0.077581853 0.509 12518230
-0.16803879 0.077429436 0.50800002 12583510
-0.16748342 0.077429436 0.50800002 12649303
-0.16659947 0.07727702 0.50700003 12649303
-0.16604519 0.07727702 0.50700003 12649303
-0.16483808 0.076972172 0.505 12911705
-0.16396067 0.076819755 0.50400001 12911705
-0.16308546 0.076667339 0.50300002 13042778
-0.16253556 0.076667339 0.50300002 13042778
-0.16166362 0.076514922 0.50200003 13042780
-0.16079386 0.076362498 0.50100005 12976987
-0.16024615 0.076362498 0.50100005 12191062
-0.15969844 0.076362498 0.50100005 12454234
-0.15883304 0.076210074 0.5 11418470
-0.15828642 0.076210074 0.5 12142193
-0.15773979 0.076210074 0.5 9591390
-0.15687878 0.076057658 0.49900001 9657183
-0.15633327 0.076057658 0.49900001 8410194
-0.15578774 0.076057658 0.49900001 8410194
-0.15415114 0.076057658 0.49900001 12595818
-0.15360561 0.076057658 0.49900001 10161477
-0.15306009 0.076057658 0.49900001 12321621
-0.15343149 0.076514922 0.50200003 12387414
-0.15288268 0.076514922 0.50200003 12583512
-0.15385114 0.07727702 0.50700003 12583512
-0.15450631 0.077886701 0.51100004 12714326
-0.15424892 0.078039117 0.51200002 12714326
-0.15458971 0.078496382 0.51500005 12714324
-0.1540267 0.078496382 0.51500005 12714324
-0.15465562 0.079106063 0.51900005 12714578
-0.15468201 0.079410903 0.52100003 12648785
-0.15440823 0.07956332 0.52200001 12648785
-0.15383756 0.07956332 0.52200001 12648785
-0.15356049 0.079715736 0.523 12517969
-0.15298872 0.079715736 0.523 12517969
-0.15241696 0.079715736 0.523 10616900
-0.15184519 0.079715736 0.523 11603027
-0.15127343 0.079715736 0.523 12012907
-0.15098983 0.079868168 0.52400005 13657732
-0.15041696 0.079868168 0.52400005 13069177
-0.1498441 0.079868168 0.52400005 13003384
-0.14927123 0.079868168 0.52400005 10751811
-0.14869837 0.079868168 0.52400005 10291260
-0.1484082 0.080020584 0.52500004 12321605
-0.14783424 0.080020584 0.52500004 12255812
-0.14754078 0.080173001 0.52600002 12321341
-0.14696573 0.080173001 0.52600002 12189755
-0.146669 0.080325417 0.52700001 12124727
-0.14637007 0.080477841 0.528 12058934
-0.14579284 0.080477841 0.528 11469623
-0.14549063 0.080630265 0.52900004 11141170
-0.14518625 0.080782682 0.53000003 8784179
-0.14487967 0.080935098 0.53100002 10889555
-0.14429916 0.080935098 0.53100002 10511739
-0.14398931 0.081087522 0.53200001 9327465
-0.14367726 0.081239946 0.53300005 7162971
-0.14336303 0.081392363 0.53400004 6965592
-0.14277925 0.081392363 0.53400004 7556179
-0.14246173 0.081544787 0.53500003 7687765
-0.14214204 0.081697203 0.53600001 6569536
-0.14155604 0.081697203 0.53600001 6766915
-0.14097007 0.081697203 0.53600001 7164238
-0.14038409 0.081697203 0.53600001 7230031
-0.13979812 0.081697203 0.53600001 8020314
-0.13921215 0.081697203 0.53600001 6704454
-0.13862614 0.081697203 0.53600001 7162941
-0.13829771 0.08184962 0.537 11965830
-0.13771065 0.08184962 0.537 13480091
-0.13686822 0.081697203 0.53600001 12295817
-0.13628225 0.081697203 0.53600001 8939100
-0.13544309 0.081544787 0.53500003 7623240
-0.13485821 0.081544787 0.53500003 8480352
-0.21994856 0.082898617 0.54000002 10820954
-0.21935819 0.082898617 0.54000002 10360403
-0.21876784 0.082898617 0.54000002 10882643
-0.2181775 0.082898617 0.54000002 10685264
-0.21758714 0.082898617 0.54000002 10749519
-0.21699679 0.082898617 0.54000002 10815312
-0.21640643 0.082898617 0.54000002 11406681
-0.21541643 0.082745105 0.53900003 11735646
-0.21482717 0.082745105 0.53900003 12195173
-0.21384045 0.082591586 0.53800005 11274071
-0.21245952 0.082284555 0.53600001 11469910
-0.21187352 0.082284555 0.53600001 11469910
-0.21128754 0.082284555 0.53600001 11600728
-0.21030848 0.082131036 0.53500003 11666521
-0.20972359 0.082131036 0.53500003 11797335
-0.2087478 0.081977524 0.53400004 11797335
-0.20777419 0.081824012 0.53300005 11797335
-0.20719148 0.081824012 0.53300005 11863128
-0.20622113 0.081670485 0.53200001 11928662
-0.20525301 0.081516974 0.53100002 11928662
-0.20467249 0.081516974 0.53100002 11993685
-0.20370764 0.081363454 0.53000003 11993685
-0.2031282 0.081363454 0.53000003 11993683
-0.20254879 0.081363454 0.53000003 11993683
-0.20196937 0.081363454 0.53000003 11993681
-0.20138995 0.081363454 0.53000003 11993681
-0.20081054 0.081363454 0.53000003 11927888
-0.20023111 0.081363454 0.53000003 11927888
-0.19965169 0.081363454 0.53000003 11927888
-0.19907227 0.081363454 0.53000003 11927888
-0.19886737 0.081516974 0.53100002 11928142
-0.19828685 0.081516974 0.53100002 11796556
-0.19770633 0.081516974 0.53100002 11796556
-0.19712581 0.081516974 0.53100002 11928142
-0.1965453 0.081516974 0.53100002 11928142
-0.19633384 0.081670485 0.53200001 11928142
-0.19575223 0.081670485 0.53200001 11927888
-0.19553749 0.081824012 0.53300005 11927888
-0.1949548 0.081824012 0.53300005 11927888
-0.19473678 0.081977524 0.53400004 11993681
-0.19415298 0.081977524 0.53400004 11993681
-0.1935692 0.081977524 0.53400004 11993681
-0.1929854 0.081977524 0.53400004 11993681
-0.1924016 0.081977524 0.53400004 11993681
-0.19217701 0.082131036 0.53500003 11993681
-0.19123402 0.081977524 0.53400004 11993681
-0.19065024 0.081977524 0.53400004 11993681
-0.19006644 0.081977524 0.53400004 11993681
-0.18948264 0.081977524 0.53400004 12125010
-0.18854511 0.081824012 0.53300005 12125010
-0.18796241 0.081824012 0.53300005 12125010
-0.18702814 0.081670485 0.53200001 12125010
-0.18644655 0.081670485 0.53200001 12125012
-0.18586493 0.081670485 0.53200001 12125012
-0.18493505 0.081516974 0.53100002 12125012
-0.18366018 0.081209943 0.52900004 12125012
-0.18308185 0.081209943 0.52900004 12125012
-0.18250354 0.081209943 0.52900004 12125012
-0.18054958 0.080595881 0.52500004 12059219
-0.17997563 0.080595881 0.52500004 12125012
-0.17837651 0.080135331 0.52200001 12125012
-0.17780584 0.080135331 0.52200001 12125012
-0.17723517 0.080135331 0.52200001 12125012
-0.1749723 0.079367749 0.51700002 12190805
-0.17339505 0.078907199 0.514 12321621
-0.17283313 0.078907199 0.514 12321621
-0.17193605 0.078753687 0.51300001 12452435
-0.17070711 0.078446656 0.51100004 12452435
-0.17014846 0.078446656 0.51100004 12452435
-0.16892603 0.078139618 0.509 12518228
-0.16803879 0.077986106 0.50800002 12518228
-0.16748342 0.077986106 0.50800002 12518228
-0.16627087 0.077679075 0.50600004 12583508
-0.16539016 0.077525556 0.505 12649301
-0.16483808 0.077525556 0.505 12780117
-0.16396067 0.077372037 0.50400001 12911703
-0.16308546 0.077218525 0.50300002 12911705
-0.16253556 0.077218525 0.50300002 12911705
-0.16166362 0.077065013 0.50200003 12911707
-0.16079386 0.076911502 0.50100005 12780121
-0.16024615 0.076911502 0.50100005 12256598
-0.15969844 0.076911502 0.50100005 12585563
-0.15883304 0.076757975 0.5 10824536
-0.15828642 0.076757975 0.5 12403568
-0.15773979 0.076757975 0.5 10248550
-0.15687878 0.076604463 0.49900001 9853792
-0.15633327 0.076604463 0.49900001 8543063
-0.15578774 0.076604463 0.49900001 8279891
-0.15415114 0.076604463 0.49900001 12664689
-0.15360561 0.076604463 0.49900001 10098762
-0.15306009 0.076604463 0.49900001 11994451
-0.15343149 0.077065013 0.50200003 12060244
-0.15288268 0.077065013 0.50200003 12518230
-0.15480866 0.078600168 0.51200002 12583510
-0.15424892 0.078600168 0.51200002 12583510
-0.15458971 0.079060718 0.51500005 12517715
-0.1540267 0.079060718 0.51500005 12517715
-0.15465562 0.079674788 0.51900005 12648783
-0.15468201 0.079981811 0.52100003 12648783
-0.15440823 0.080135331 0.52200001 12582990
-0.15383756 0.080135331 0.52200001 12582990
-0.15356049 0.080288842 0.523 12452689
-0.15298872 0.080288842 0.523 12124236
-0.15241696 0.080288842 0.523 10290245
-0.15184519 0.080288842 0.523 11079761
-0.15127343 0.080288842 0.523 12475250
-0.15098983 0.080442362 0.52400005 13725317
-0.15041696 0.080442362 0.52400005 12675954
-0.1498441 0.080442362 0.52400005 12675954
-0.14927123 0.080442362 0.52400005 10752832
-0.14869837 0.080442362 0.52400005 9963316
-0.14812553 0.080442362 0.52400005 12124994
-0.14783424 0.080595881 0.52500004 12124994
-0.14754078 0.080749393 0.52600002 12124473
-0.14696573 0.080749393 0.52600002 12124473
-0.146669 0.080902904 0.52700001 12058934
-0.14637007 0.081056423 0.528 11993141
-0.14579284 0.081056423 0.528 11535157
-0.1452156 0.081056423 0.528 11337778
-0.14491232 0.081209943 0.52900004 9112884
-0.14487967 0.081516974 0.53100002 10165572
-0.14429916 0.081516974 0.53100002 10182002
-0.14398931 0.081670485 0.53200001 9984623
-0.14367726 0.081824012 0.53300005 7032668
-0.14309457 0.081824012 0.53300005 6572117
-0.14251187 0.081824012 0.53300005 7229013
-0.14219545 0.081977524 0.53400004 7360599
-0.14187685 0.082131036 0.53500003 6308161
-0.14129195 0.082131036 0.53500003 6439747
-0.14070708 0.082131036 0.53500003 6638407
-0.14038409 0.082284555 0.53600001 6572614
-0.13979812 0.082284555 0.53600001 7099980
-0.13921215 0.082284555 0.53600001 6310464
-0.13862614 0.082284555 0.53600001 7097148
-0.13804017 0.082284555 0.53600001 11965830
-0.1374542 0.082284555 0.53600001 13676446
-0.13661288 0.082131036 0.53500003 13018516
-0.13602799 0.082131036 0.53500003 9070172
-0.13544309 0.082131036 0.53500003 7688519
-0.13485821 0.082131036 0.53500003 8544092
-0.21954125 0.083335742 0.53900003 10624856
-0.21895197 0.083335742 0.53900003 10295891
-0.21836272 0.083335742 0.53900003 10817620
-0.21736944 0.083181128 0.53800005 10686034
-0.21678127 0.083181128 0.53800005 10553680
-0.21619311 0.083181128 0.53800005 10487887
-0.21520416 0.083026513 0.537 12528242
-0.21461709 0.083026513 0.537 12659828
-0.21403003 0.083026513 0.537 12920436
-0.21304549 0.082871899 0.53600001 11275611
-0.21206313 0.082717292 0.53500003 11141972
-0.21147823 0.082717292 0.53500003 11273558
-0.21049917 0.082562685 0.53400004 11469910
-0.20952229 0.082408071 0.53300005 11469910
-0.20893958 0.082408071 0.53300005 11600980
-0.20835689 0.082408071 0.53300005 11600980
-0.20738436 0.082253456 0.53200001 11731796
-0.20680274 0.082253456 0.53200001 11797589
-0.20583351 0.082098842 0.53100002 11797589
-0.20525301 0.082098842 0.53100002 11797589
-0.20467249 0.082098842 0.53100002 11862867
-0.20370764 0.081944235 0.53000003 11862867
-0.20274495 0.08178962 0.52900004 11797074
-0.20216662 0.08178962 0.52900004 11797074
-0.20158829 0.08178962 0.52900004 11797072
-0.20100997 0.08178962 0.52900004 11665486
-0.20043164 0.08178962 0.52900004 11665740
-0.19985332 0.08178962 0.52900004 11665740
-0.19927499 0.08178962 0.52900004 11665740
-0.19907227 0.081944235 0.53000003 11665740
-0.19849285 0.081944235 0.53000003 11665740
-0.19791344 0.081944235 0.53000003 11665740
-0.19770633 0.082098842 0.53100002 11534667
-0.19749704 0.082253456 0.53200001 11534667
-0.19691545 0.082253456 0.53200001 11600460
-0.19633384 0.082253456 0.53200001 11600460
-0.19575223 0.082253456 0.53200001 11600206
-0.19553749 0.082408071 0.53300005 11600206
-0.1949548 0.082408071 0.53300005 11731792
-0.19473678 0.082562685 0.53400004 11731792
-0.19415298 0.082562685 0.53400004 11797072
-0.1935692 0.082562685 0.53400004 11797072
-0.1929854 0.082562685 0.53400004 11797072
-0.1924016 0.082562685 0.53400004 11862865
-0.19181781 0.082562685 0.53400004 11862865
-0.19123402 0.082562685 0.53400004 11862865
-0.19065024 0.082562685 0.53400004 11862865
-0.19006644 0.082562685 0.53400004 11862865
-0.18948264 0.082562685 0.53400004 12059474
-0.18854511 0.082408071 0.53300005 12059474
-0.18796241 0.082408071 0.53300005 12059474
-0.18702814 0.082253456 0.53200001 11993681
-0.18644655 0.082253456 0.53200001 11993681
-0.18586493 0.082253456 0.53200001 11993681
-0.18493505 0.082098842 0.53100002 11993681
-0.18366018 0.08178962 0.52900004 11993681
-0.18308185 0.08178962 0.52900004 11993681
-0.18054958 0.081171177 0.52500004 11993681
-0.17997563 0.081171177 0.52500004 12059474
-0.17837651 0.080707334 0.52200001 12125010
-0.17780584 0.080707334 0.52200001 12125010
-0.1749723 0.079934277 0.51700002 12125010
-0.17339505 0.079470441 0.514 12255826
-0.17283313 0.079470441 0.514 12255826
-0.17227121 0.079470441 0.514 12321619
-0.17070711 0.079006612 0.51100004 12321619
-0.17014846 0.079006612 0.51100004 12452435
-0.16892603 0.078697383 0.509 12452435
-0.16803879 0.078542769 0.50800002 12452435
-0.16748342 0.078542769 0.50800002 12452435
-0.16627087 0.078233555 0.50600004 12583508
-0.16539016 0.078078933 0.505 12649301
-0.16483808 0.078078933 0.505 12583508
-0.16396067 0.077924326 0.50400001 12649301
-0.16308546 0.077769712 0.50300002 12780119
-0.16221243 0.077615105 0.50200003 12780119
-0.16166362 0.077615105 0.50200003 12780121
-0.16079386 0.077460498 0.50100005 12780121
-0.16024615 0.077460498 0.50100005 12256598
-0.15969844 0.077460498 0.50100005 12125012
-0.15883304 0.077305876 0.5 11085144
-0.15828642 0.077305876 0.5 12335211
-0.15742432 0.077151269 0.49900001 10840173
-0.15687878 0.077151269 0.49900001 9984864
-0.15633327 0.077151269 0.49900001 8938588
-0.15578774 0.077151269 0.49900001 8346451
-0.15493111 0.076996654 0.49800003 9392987
-0.15438665 0.076996654 0.49800003 9261401
-0.15384223 0.076996654 0.49800003 11812199
-0.15360561 0.077151269 0.49900001 9904202
-0.15306009 0.077151269 0.49900001 11141191
-0.15312585 0.077460498 0.50100005 11864402
-0.15257815 0.077460498 0.50100005 12518230
-0.15294077 0.077924326 0.50400001 12518230
-0.15480866 0.079161219 0.51200002 12517717
-0.15424892 0.079161219 0.51200002 12517717
-0.15428953 0.079470441 0.514 12451922
-0.15372761 0.079470441 0.514 12451922
-0.15405963 0.079934277 0.51700002 12452428
-0.15438512 0.08039812 0.52000004 12452428
-0.15440823 0.080707334 0.52200001 12452428
-0.15383756 0.080707334 0.52200001 12452428
-0.15326689 0.080707334 0.52200001 11534410
-0.15298872 0.080861948 0.523 11599947
-0.15241696 0.080861948 0.523 10690390
-0.15184519 0.080861948 0.523 10624597
-0.15127343 0.080861948 0.523 12082545
-0.15070166 0.080861948 0.523 13069440
-0.15012988 0.080861948 0.523 12676979
-0.14955811 0.080861948 0.523 12413807
-0.14927123 0.081016563 0.52400005 10359609
-0.14869837 0.081016563 0.52400005 9767472
-0.14812553 0.081016563 0.52400005 11862590
-0.14755265 0.081016563 0.52400005 11862590
-0.14726028 0.081171177 0.52500004 12124473
-0.14668633 0.081171177 0.52500004 12058680
-0.14639069 0.081325784 0.52600002 11862323
-0.14609286 0.081480391 0.52700001 11796530
-0.14551672 0.081480391 0.52700001 11404082
-0.1452156 0.081635006 0.528 11404082
-0.14491232 0.08178962 0.52900004 9178163
-0.14460683 0.081944235 0.53000003 10099265
-0.14402741 0.081944235 0.53000003 9788016
-0.14371864 0.082098842 0.53100002 10380153
-0.14340769 0.082253456 0.53200001 6704987
-0.14309457 0.082408071 0.53300005 6310229
-0.14251187 0.082408071 0.53300005 6836571
-0.14219545 0.082562685 0.53400004 7362915
-0.14161167 0.082562685 0.53400004 6901583
-0.14102785 0.082562685 0.53400004 6506825
-0.14044407 0.082562685 0.53400004 6244933
-0.14012219 0.082717292 0.53500003 5981761
-0.1395373 0.082717292 0.53500003 6573636
-0.13895242 0.082717292 0.53500003 6310464
-0.13836752 0.082717292 0.53500003 6703160
-0.13804017 0.082871899 0.53600001 10650740
-0.13719776 0.082717292 0.53500003 13346715
-0.13635753 0.082562685 0.53400004 12622992
-0.13577373 0.082562685 0.53400004 8807000
-0.13518994 0.082562685 0.53400004 7951691
-0.13460614 0.082562685 0.53400004 8608088
-0.2201305 0.08392638 0.53900003 9905494
-0.21913394 0.08377067 0.53800005 10493786
-0.21854576 0.08377067 0.53800005 10362200
-0.21755245 0.083614953 0.537 10621524
-0.21696539 0.083614953 0.537 10358352
-0.21637832 0.083614953 0.537 10095182
-0.21579126 0.083614953 0.537 12332144
-0.21480341 0.083459251 0.53600001 14306448
-0.21421744 0.083459251 0.53600001 13253760
-0.21363147 0.083459251 0.53600001 12328556
-0.21264802 0.083303548 0.53500003 10749524
-0.21166676 0.083147839 0.53400004 11141972
-0.21108297 0.083147839 0.53400004 11141972
-0.21010499 0.082992136 0.53300005 11273042
-0.20952229 0.082992136 0.53300005 11273042
-0.20893958 0.082992136 0.53300005 11338578
-0.20835689 0.082992136 0.53300005 11338578
-0.20738436 0.082836419 0.53200001 11338576
-0.20680274 0.082836419 0.53200001 11470162
-0.20583351 0.082680717 0.53100002 11600978
-0.20525301 0.082680717 0.53100002 11666771
-0.20467249 0.082680717 0.53100002 11731794
-0.20370764 0.082525007 0.53000003 11731794
-0.20274495 0.082369305 0.52900004 11600206
-0.20216662 0.082369305 0.52900004 11600206
-0.20158829 0.082369305 0.52900004 11600460
-0.20100997 0.082369305 0.52900004 11600460
-0.20043164 0.082369305 0.52900004 11600460
-0.19985332 0.082369305 0.52900004 11600460
-0.19927499 0.082369305 0.52900004 11534667
-0.19907227 0.082525007 0.53000003 11534667
-0.19849285 0.082525007 0.53000003 11534667
-0.19791344 0.082525007 0.53000003 11534667
-0.19770633 0.082680717 0.53100002 11534667
-0.19749704 0.082836419 0.53200001 11534667
-0.19691545 0.082836419 0.53200001 11534667
-0.19633384 0.082836419 0.53200001 11534667
-0.19575223 0.082836419 0.53200001 11534667
-0.19553749 0.082992136 0.53300005 11600460
-0.1949548 0.082992136 0.53300005 11600460
-0.19473678 0.083147839 0.53400004 11600460
-0.19415298 0.083147839 0.53400004 11732046
-0.1935692 0.083147839 0.53400004 11732046
-0.1929854 0.083147839 0.53400004 11732046
-0.1924016 0.083147839 0.53400004 11732046
-0.19181781 0.083147839 0.53400004 11732046
-0.19087592 0.082992136 0.53300005 11732046
-0.18993618 0.082836419 0.53200001 11797326
-0.18935457 0.082836419 0.53200001 11863119
-0.18877295 0.082836419 0.53200001 11862865
-0.18819135 0.082836419 0.53200001 11862865
-0.18760975 0.082836419 0.53200001 11797072
-0.18632504 0.082525007 0.53000003 11797072
-0.18574563 0.082525007 0.53000003 11862865
-0.1851662 0.082525007 0.53000003 11862865
-0.18423851 0.082369305 0.52900004 11862865
-0.1829658 0.082057878 0.52700001 11862865
-0.18238966 0.082057878 0.52700001 11862865
-0.18146853 0.081902176 0.52600002 11862865
-0.18054958 0.081746474 0.52500004 11993681
-0.17997563 0.081746474 0.52500004 11993681
-0.17837651 0.081279345 0.52200001 11993681
-0.17780584 0.081279345 0.52200001 11993681
-0.1749723 0.080500811 0.51700002 12125010
-0.17339505 0.080033682 0.514 12125264
-0.17283313 0.080033682 0.514 12125264
-0.17227121 0.080033682 0.514 12256080
-0.17037304 0.079410858 0.51000005 12256080
-0.1698155 0.079410858 0.51000005 12256080
-0.16892603 0.079255141 0.509 12256080
-0.16803879 0.079099439 0.50800002 12321873
-0.16748342 0.079099439 0.50800002 12321873
-0.16627087 0.078788027 0.50600004 12321873
-0.16539016 0.07863231 0.505 12387666
-0.16483808 0.07863231 0.505 12518228
-0.16396067 0.078476608 0.50400001 12584021
-0.16276124 0.078165196 0.50200003 12649301
-0.16221243 0.078165196 0.50200003 12649301
-0.16166362 0.078165196 0.50200003 12649303
-0.16079386 0.078009494 0.50100005 12649303
-0.16024615 0.078009494 0.50100005 12387416
-0.15937966 0.077853777 0.5 11993170
-0.15883304 0.077853777 0.5 10556749
-0.15828642 0.077853777 0.5 12464746
-0.15742432 0.077698074 0.49900001 11036269
-0.15687878 0.077698074 0.49900001 10180960
-0.15633327 0.077698074 0.49900001 8872795
-0.15578774 0.077698074 0.49900001 8543830
-0.15493111 0.077542365 0.49800003 9066329
-0.15438665 0.077542365 0.49800003 9000536
-0.15384223 0.077542365 0.49800003 10894175
-0.15360561 0.077698074 0.49900001 10499417
-0.15306009 0.077698074 0.49900001 10747970
-0.15312585 0.078009494 0.50100005 11602255
-0.15257815 0.078009494 0.50100005 12190803
-0.15263732 0.078320906 0.50300002 12190803
-0.1529945 0.078788027 0.50600004 12321621
-0.15485145 0.080033682 0.514 12321621
-0.15428953 0.080033682 0.514 12386896
-0.15372761 0.080033682 0.514 12386896
-0.15376164 0.080345102 0.51600003 12321355
-0.15408823 0.080812231 0.51900005 12321355
-0.15411243 0.081123643 0.52100003 12321355
-0.15354285 0.081123643 0.52100003 12058695
-0.15326689 0.081279345 0.52200001 10879045
-0.15269619 0.081279345 0.52200001 14102134
-0.15241696 0.081435047 0.523 11944048
-0.15184519 0.081435047 0.523 10496602
-0.15127343 0.081435047 0.523 11033189
-0.15070166 0.081435047 0.523 12480635
-0.15012988 0.081435047 0.523 12217965
-0.14955811 0.081435047 0.523 12546930
-0.14898635 0.081435047 0.523 10294328
-0.1484146 0.081435047 0.523 9636398
-0.14812553 0.081590764 0.52400005 11797305
-0.14755265 0.081590764 0.52400005 11797305
-0.14726028 0.081746474 0.52500004 11928118
-0.14668633 0.081746474 0.52500004 11928118
-0.14639069 0.081902176 0.52600002 11731505
-0.14609286 0.082057878 0.52700001 11665712
-0.14551672 0.082057878 0.52700001 11338289
-0.1452156 0.082213588 0.528 11404082
-0.14491232 0.082369305 0.52900004 9046064
-0.14460683 0.082525007 0.53000003 10032959
-0.14402741 0.082525007 0.53000003 9260902
-0.14371864 0.082680717 0.53100002 10774141
-0.14340769 0.082836419 0.53200001 7100258
-0.14309457 0.082992136 0.53300005 6376535
-0.14251187 0.082992136 0.53300005 6574684
-0.14219545 0.083147839 0.53400004 6706270
-0.14161167 0.083147839 0.53400004 6443345
-0.14102785 0.083147839 0.53400004 6114380
-0.14044407 0.083147839 0.53400004 6114632
-0.14012219 0.083303548 0.53500003 5785667
-0.1395373 0.083303548 0.53500003 6245187
-0.13895242 0.083303548 0.53500003 6903117
-0.13836752 0.083303548 0.53500003 6374204
-0.13804017 0.083459251 0.53600001 8742752
-0.13719776 0.083303548 0.53500003 11965580
-0.13635753 0.083147839 0.53400004 12689303
-0.13577373 0.083147839 0.53400004 9464932
-0.13518994 0.083147839 0.53400004 8675416
-0.13460614 0.083147839 0.53400004 8277838
-0.2201305 0.084517017 0.53900003 9773141
-0.21913394 0.084360212 0.53800005 10296920
-0.21854576 0.084360212 0.53800005 10231127
-0.21755245 0.0842034 0.537 10229335
-0.21696539 0.0842034 0.537 9505612
-0.21637832 0.0842034 0.537 10559327
-0.21579126 0.0842034 0.537 13914770
-0.21480341 0.084046602 0.53600001 14439319
-0.21421744 0.084046602 0.53600001 11939185
-0.21363147 0.084046602 0.53600001 11012698
-0.21264802 0.083889797 0.53500003 10749526
-0.21166676 0.083733 0.53400004 11010899
-0.21108297 0.083733 0.53400004 11010899
-0.21010499 0.083576195 0.53300005 11207247
-0.20912917 0.083419383 0.53200001 11207247
-0.20854756 0.083419383 0.53200001 11207247
-0.20796596 0.083419383 0.53200001 11207247
-0.20699455 0.083262585 0.53100002 11272783
-0.20641401 0.083262585 0.53100002 11272783
-0.20544589 0.08310578 0.53000003 11338576
