# .PCD v0.7 - Point Cloud Data file format
VERSION 0.7
FIELDS x y z rgb
SIZE 4 4 4 4
TYPE F F F U
COUNT 1 1 1 1
WIDTH 1140
HEIGHT 1
VIEWPOINT 0 0 0 1 0 0 0
POINTS 1140
DATA ascii
0.14188904 0.043411829 0.63800001 11756452
0.14258654 0.043411829 0.63800001 16361962
0.14283486 0.043275744 0.63600004 16774911
0.1430788 0.043139655 0.634 16775167
0.14377193 0.043139655 0.634 16711422
0.14378145 0.042935528 0.63100004 16711422
0.14401338 0.042799436 0.62900001 16711422
0.14470103 0.042799436 0.62900001 16711422
0.1449264 0.042663351 0.62700003 16711422
0.14537963 0.042595308 0.62600005 16711422
0.14583066 0.042527262 0.625 16711422
0.1460451 0.042391177 0.62300003 16711422
0.14625517 0.042255092 0.62100005 16711422
0.14693408 0.042255092 0.62100005 16711422
0.14713757 0.042119 0.61900002 16711422
0.14733669 0.041982915 0.61700004 16711422
0.14777134 0.041914873 0.61600006 16711422
0.14820379 0.041846827 0.61500001 16711422
0.14839199 0.041710742 0.61300004 16711422
0.14881898 0.041642699 0.61200005 16448250
0.14948805 0.041642699 0.61200005 15394026
0.1496664 0.041506607 0.61000001 14867682
0.14984038 0.041370522 0.60800004 16576251
0.15050508 0.041370522 0.60800004 16775423
0.1506725 0.041234434 0.60600001 16767487
0.15108527 0.041166391 0.60500002 13146566
0.15174669 0.041166391 0.60500002 12883396
0.15190427 0.041030306 0.60300004 16765439
0.15231049 0.040962264 0.60200006 16775935
0.15296865 0.040962264 0.60200006 16775935
0.15311638 0.040826172 0.60000002 16711422
0.15351604 0.040758129 0.59900004 16711422
0.15417089 0.040758129 0.59900004 16711422
0.15456727 0.040690087 0.59800005 16711422
0.15496147 0.040622041 0.597 16711422
0.15561412 0.040622041 0.597 16711422
0.15600504 0.040553998 0.59600002 16776959
0.15639377 0.040485956 0.59500003 16513788
0.15704425 0.040485956 0.59500003 15263976
0.15742971 0.040417913 0.59400004 16250871
0.15781297 0.040349871 0.59300005 16711422
0.15846126 0.040349871 0.59300005 16711422
0.15857291 0.040213779 0.59100002 16711422
0.15921901 0.040213779 0.59100002 16711422
0.15986514 0.040213779 0.59100002 16513788
0.15996806 0.040077694 0.58900005 14934756
0.16033928 0.040009648 0.588 15658734
0.16070834 0.039941605 0.58700001 16711422
0.16135006 0.039941605 0.58700001 16711422
0.16171585 0.039873563 0.58600003 16185078
0.16180238 0.039737478 0.58400005 16645629
0.16244082 0.039737478 0.58400005 16711422
0.16280001 0.039669432 0.583 16711422
0.16343738 0.039669432 0.583 16711422
0.16407473 0.039669432 0.583 16711422
0.16442959 0.039601389 0.58200002 16711422
0.16506585 0.039601389 0.58200002 16711422
0.16598684 0.039669432 0.583 16711422
0.16662419 0.039669432 0.583 16711422
0.16726154 0.039669432 0.583 16711422
0.16789892 0.039669432 0.583 16711422
0.16853628 0.039669432 0.583 16711422
0.16917364 0.039669432 0.583 16711422
0.17010228 0.039737478 0.58400005 16711422
0.17074072 0.039737478 0.58400005 16776703
0.17137919 0.039737478 0.58400005 16776703
0.1723122 0.03980552 0.58500004 15854847
0.17295174 0.03980552 0.58500004 14933752
0.17388803 0.039873563 0.58600003 14408185
0.17452866 0.039873563 0.58600003 14145013
0.17546824 0.039941605 0.58700001 14014710
0.17610997 0.039941605 0.58700001 13883124
0.1767517 0.039941605 0.58700001 13686265
0.17799784 0.040077694 0.58900005 13620472
0.17894505 0.040145736 0.59000003 13489147
0.18019885 0.040281825 0.59200001 13949695
0.18084605 0.040281825 0.59200001 13818367
0.18179984 0.040349871 0.59300005 13489407
0.18306346 0.040485956 0.59500003 12963835
0.18433146 0.040622041 0.597 13095421
0.18498412 0.040622041 0.597 13687807
0.18625872 0.040758129 0.59900004 13950975
0.18753764 0.040894218 0.60100001 15068927
0.18819468 0.040894218 0.60100001 16121599
0.18948019 0.041030306 0.60300004 16449535
0.1901394 0.041030306 0.60300004 16449535
0.19111505 0.041098349 0.60400003 16580606
0.19177537 0.041098349 0.60400003 16580606
0.19243568 0.041098349 0.60400003 16711423
0.1934157 0.041166391 0.60500002 16711423
0.1940771 0.041166391 0.60500002 15263726
0.19473854 0.041166391 0.60500002 10197665
0.19572291 0.041234434 0.60600001 10197662
0.19735762 0.041438565 0.60900003 11118764
0.19802341 0.041438565 0.60900003 10855571
0.19999421 0.041710742 0.61300004 11316122
0.20164643 0.041914873 0.61600006 12104857
0.20330518 0.042119 0.61900002 10854790
0.20398191 0.042119 0.61900002 9999483
0.20531988 0.042255092 0.62100005 12696996
0.13314509 0.046669103 0.67500001 7497333
0.13388304 0.046669103 0.67500001 8020597
0.13442154 0.046599966 0.67400002 4730947
0.13435626 0.046323407 0.67000002 6040123
0.13508874 0.046323407 0.67000002 6040123
0.13541578 0.046185132 0.66800004 6563124
0.13594227 0.046115994 0.66700006 6563124
0.13667145 0.046115994 0.66700006 7349047
0.13678265 0.045908574 0.66400003 7480633
0.13730147 0.045839433 0.66300005 8135483
0.1380263 0.045839433 0.66300005 8398655
0.13812327 0.045632016 0.66000003 9250633
0.13821369 0.045424595 0.65700001 9119047
0.13893196 0.045424595 0.65700001 9905229
0.13922511 0.045286316 0.65500003 10168401
0.13908659 0.045009758 0.65100002 11020380
0.1397983 0.045009758 0.65100002 11020380
0.13986248 0.044802342 0.648 11347814
0.14057089 0.044802342 0.648 11479400
0.14062525 0.044594925 0.64500004 12070267
0.14067304 0.044387504 0.64200002 12662404
0.1413749 0.044387504 0.64200002 12866211
0.14141287 0.044180088 0.63900006 12471453
0.14166665 0.044041809 0.63700002 12487355
0.14236306 0.044041809 0.63700002 16769535
0.14261028 0.04390353 0.63500005 16776447
0.14262745 0.043696113 0.63200003 16776447
0.14331838 0.043696113 0.63200003 16711422
0.1435536 0.043557834 0.63000005 16711422
0.14378443 0.043419555 0.62800002 16711422
0.14447097 0.043419555 0.62800002 16711422
0.14469525 0.043281276 0.62600005 16711422
0.14491515 0.043142997 0.62400001 16711422
0.14559734 0.043142997 0.62400001 16711422
0.14581068 0.043004718 0.62200004 16711422
0.14601964 0.042866435 0.62 16711422
0.14669745 0.042866435 0.62 16711422
0.14689986 0.04272816 0.61800003 16711422
0.1470979 0.042589884 0.61600006 16711422
0.14777134 0.042589884 0.61600006 16711422
0.14796281 0.042451601 0.61400002 16711422
0.14814992 0.042313326 0.61200005 16775423
0.14881898 0.042313326 0.61200005 15129319
0.14899953 0.042175043 0.61000001 14406107
0.14942105 0.042105906 0.60900003 16577276
0.14959395 0.041967627 0.60700005 16775679
0.15025754 0.041967627 0.60700005 16775679
0.1506725 0.041898485 0.60600001 16771327
0.151335 0.041898485 0.60600001 13478093
0.15190427 0.041691069 0.60300004 16773375
0.15231049 0.041621931 0.60200006 16776703
0.15296865 0.041621931 0.60200006 16776703
0.15311638 0.041483648 0.60000002 16711422
0.15351604 0.04141451 0.59900004 16711422
0.15417089 0.04141451 0.59900004 16711422
0.15456727 0.041345373 0.59800005 16711422
0.15496147 0.041276231 0.597 16711422
0.15561412 0.041276231 0.597 16711422
0.15600504 0.04120709 0.59600002 16645375
0.15639377 0.041137952 0.59500003 14408414
0.15704425 0.041137952 0.59500003 13881820
0.15742971 0.041068815 0.59400004 16184575
0.15781297 0.040999677 0.59300005 16776703
0.15846126 0.040999677 0.59300005 16776703
0.15857291 0.040861394 0.59100002 16776959
0.15921901 0.040861394 0.59100002 16645374
0.15986514 0.040861394 0.59100002 16645629
0.15996806 0.040723119 0.58900005 16645629
0.16033928 0.040653974 0.588 16711422
0.16070834 0.040584836 0.58700001 16711422
0.16135006 0.040584836 0.58700001 16645629
0.16171585 0.040515698 0.58600003 16514043
0.16180238 0.040377419 0.58400005 16711422
0.16244082 0.040377419 0.58400005 16711422
0.16280001 0.040308278 0.583 16711422
0.16343738 0.040308278 0.583 16711422
0.16407473 0.040308278 0.583 16711422
0.16442959 0.04023914 0.58200002 16711422
0.16506585 0.04023914 0.58200002 16711422
0.16598684 0.040308278 0.583 16711422
0.16662419 0.040308278 0.583 16711423
0.16726154 0.040308278 0.583 16711423
0.16789892 0.040308278 0.583 16711167
0.16853628 0.040308278 0.583 16711167
0.16917364 0.040308278 0.583 16775423
0.17010228 0.040377419 0.58400005 16117503
0.17074072 0.040377419 0.58400005 13747954
0.17137919 0.040377419 0.58400005 11905750
0.1723122 0.040446561 0.58500004 9933259
0.17295174 0.040446561 0.58500004 9012157
0.17388803 0.040515698 0.58600003 8290235
0.17452866 0.040515698 0.58600003 8027063
0.17546824 0.040584836 0.58700001 7634102
0.17610997 0.040584836 0.58700001 7436723
0.1767517 0.040584836 0.58700001 7239092
0.17769563 0.040653974 0.588 7239092
0.17864177 0.040723119 0.58900005 7568320
0.17959008 0.040792257 0.59000003 8357836
0.18023509 0.040792257 0.59000003 9082844
0.18149325 0.040930532 0.59200001 10069739
0.18244813 0.040999677 0.59300005 9939696
0.18309642 0.040999677 0.59300005 9742317
0.18436442 0.041137952 0.59500003 10136814
0.18532586 0.04120709 0.59600002 10465779
0.18660152 0.041345373 0.59800005 11254513
0.18725528 0.041345373 0.59800005 12044029
0.18822326 0.04141451 0.59900004 13555452
0.18919343 0.041483648 0.60000002 15397631
0.1901658 0.04155279 0.60100001 16186367
0.19082284 0.04155279 0.60100001 16383743
0.19179849 0.041621931 0.60200006 16580607
0.19245662 0.041621931 0.60200006 16580607
0.19311476 0.041621931 0.60200006 16580607
0.19409478 0.041691069 0.60300004 15133164
0.19507697 0.041760206 0.60400003 11579318
0.19638541 0.041898485 0.60600001 10658216
0.19704792 0.041898485 0.60600001 10657690
0.19901544 0.042175043 0.61000001 11052448
0.20066439 0.042382464 0.61300004 11710871
0.20199141 0.042520739 0.61500001 11118734
0.20266376 0.042520739 0.61500001 9736311
0.20399737 0.042659022 0.61700004 10854792
0.20599878 0.04293558 0.62100005 11115161
0.13314509 0.047408771 0.67500001 7497333
0.13388304 0.047408771 0.67500001 8020597
0.13442154 0.047338538 0.67400002 4730947
0.13415574 0.046987362 0.66900003 6040123
0.13488711 0.046987362 0.66900003 6040123
0.13521306 0.046846893 0.66700006 6563124
0.13573843 0.046776652 0.66600001 6563124
0.13646653 0.046776652 0.66600001 7349047
0.13678265 0.046636187 0.66400003 7480633
0.13688728 0.046425477 0.66100001 8135483
0.13760991 0.046425477 0.66100001 8398655
0.137914 0.046285011 0.65900004 9250633
0.13800333 0.046074301 0.65600002 9119047
0.1387205 0.046074301 0.65600002 9905229
0.13880001 0.045863599 0.65300006 10168401
0.13887294 0.045652892 0.65000004 11020380
0.13958356 0.045652892 0.65000004 11020380
0.13986248 0.045512419 0.648 11347814
0.14057089 0.045512419 0.648 11479400
0.14062525 0.045301717 0.64500004 12070267
0.14067304 0.045091011 0.64200002 12662404
0.1413749 0.045091011 0.64200002 12866211
0.14141287 0.044880308 0.63900006 12471453
0.14166665 0.044739835 0.63700002 12487355
0.14236306 0.044739835 0.63700002 16769535
0.14261028 0.044599365 0.63500005 16776447
0.14262745 0.044388659 0.63200003 16776447
0.14331838 0.044388659 0.63200003 16711422
0.1435536 0.04424819 0.63000005 16711422
0.14378443 0.044107717 0.62800002 16711422
0.14447097 0.044107717 0.62800002 16711422
0.14469525 0.043967247 0.62600005 16711422
0.14491515 0.043826774 0.62400001 16711422
0.14559734 0.043826774 0.62400001 16711422
0.14581068 0.043686308 0.62200004 16711422
0.14601964 0.043545835 0.62 16711422
0.14669745 0.043545835 0.62 16711422
0.14689986 0.043405365 0.61800003 16711422
0.1470979 0.043264896 0.61600006 16711422
0.14777134 0.043264896 0.61600006 16711422
0.14796281 0.043124422 0.61400002 16711422
0.14814992 0.042983957 0.61200005 16775423
0.14881898 0.042983957 0.61200005 15129319
0.14899953 0.042843483 0.61000001 14406107
0.14942105 0.042773247 0.60900003 16577276
0.14959395 0.042632781 0.60700005 16775679
0.15025754 0.042632781 0.60700005 16775679
0.15042385 0.042492308 0.60500002 16771327
0.15108527 0.042492308 0.60500002 13478093
0.15165237 0.042281605 0.60200006 16773375
0.15205747 0.042211365 0.60100001 16776703
0.15271454 0.042211365 0.60100001 16776703
0.15286118 0.042070895 0.59900004 16711422
0.15325975 0.042000663 0.59800005 16711422
0.15391351 0.042000663 0.59800005 16711422
0.15430878 0.041930422 0.597 16711422
0.1547019 0.041860189 0.59600002 16711422
0.15535347 0.041860189 0.59600002 16711422
0.15574329 0.041789956 0.59500003 16645375
0.15613092 0.04171972 0.59400004 14408414
0.1567803 0.04171972 0.59400004 13881820
0.15716468 0.041649487 0.59300005 16184575
0.15754683 0.041579247 0.59200001 16776703
0.15819402 0.041579247 0.59200001 16776703
0.15857291 0.041509014 0.59100002 16776959
0.15894961 0.041438781 0.59000003 16645374
0.15959464 0.041438781 0.59000003 16645629
0.15996806 0.041368544 0.58900005 16645629
0.16033928 0.041298307 0.588 16711422
0.16070834 0.041228071 0.58700001 16711422
0.16135006 0.041228071 0.58700001 16645629
0.16171585 0.041157838 0.58600003 16514043
0.16207944 0.041087605 0.58500004 16711422
0.16271898 0.041087605 0.58500004 16711422
0.16307928 0.041017368 0.58400005 16711422
0.16371773 0.041017368 0.58400005 16711422
0.16435619 0.041017368 0.58400005 16711422
0.16471212 0.040947132 0.583 16711422
0.16534947 0.040947132 0.583 16711422
0.16598684 0.040947132 0.583 16711422
0.16662419 0.040947132 0.583 16711423
0.16754846 0.041017368 0.58400005 16711423
0.16818692 0.041017368 0.58400005 16711167
0.16882537 0.041017368 0.58400005 16711167
0.16946383 0.041017368 0.58400005 16775423
0.17010228 0.041017368 0.58400005 16117503
0.17074072 0.041017368 0.58400005 13747954
0.17137919 0.041017368 0.58400005 11905750
0.1723122 0.041087605 0.58500004 9933259
0.17295174 0.041087605 0.58500004 9012157
0.17388803 0.041157838 0.58600003 8290235
0.17452866 0.041157838 0.58600003 8027063
0.17516932 0.041157838 0.58600003 7634102
0.17610997 0.041228071 0.58700001 7436723
0.1767517 0.041228071 0.58700001 7239092
0.17739342 0.041228071 0.58700001 7239092
0.17864177 0.041368544 0.58900005 7568320
0.17959008 0.041438781 0.59000003 8357836
0.18023509 0.041438781 0.59000003 9082844
0.1808801 0.041438781 0.59000003 10069739
0.18183278 0.041509014 0.59100002 9939696
0.18247889 0.041509014 0.59100002 9742317
0.18374471 0.041649487 0.59300005 10136814
0.18470396 0.04171972 0.59400004 10465779
0.18566538 0.041789956 0.59500003 11254513
0.18631586 0.041789956 0.59500003 12044029
0.18728057 0.041860189 0.59600002 13555452
0.18824746 0.041930422 0.597 15397631
0.18921657 0.042000663 0.59800005 16186367
0.18987033 0.042000663 0.59800005 16383743
0.19052409 0.042000663 0.59800005 16580607
0.19149753 0.042070895 0.59900004 16580607
0.19215238 0.042070895 0.59900004 16580607
0.19312912 0.042141132 0.60000002 15133164
0.19443102 0.042281605 0.60200006 11579318
0.19541322 0.042351838 0.60300004 10658216
0.19607244 0.042351838 0.60300004 10657690
0.19771042 0.042562541 0.60600001 11052448
0.20066439 0.04305419 0.61300004 11710871
0.20199141 0.043194659 0.61500001 11118734
0.20266376 0.043194659 0.61500001 9736311
0.20399737 0.043335132 0.61700004 10854792
0.20599878 0.043616071 0.62100005 11115161
0.13334236 0.04821977 0.67600006 7367041
0.13408139 0.04821977 0.67600006 9274784
0.13442154 0.048077106 0.67400002 8024717
0.13415574 0.047720451 0.66900003 6900578
0.13488711 0.047720451 0.66900003 4992581
0.13521306 0.047577791 0.66700006 5906227
0.13573843 0.047506459 0.66600001 5972020
0.13646653 0.047506459 0.66600001 6692916
0.13678265 0.047363799 0.66400003 6692916
0.13688728 0.047149803 0.66100001 7283256
0.13760991 0.047149803 0.66100001 7414842
0.137914 0.047007143 0.65900004 8397634
0.13800333 0.046793148 0.65600002 8463427
0.1387205 0.046793148 0.65600002 9578065
0.13880001 0.04657916 0.65300006 10038616
0.13887294 0.046365164 0.65000004 10431325
0.13958356 0.046365164 0.65000004 10826083
0.13986248 0.046222501 0.648 11285101
0.14057089 0.046222501 0.648 11416687
0.14040723 0.045937177 0.64400005 11745413
0.14045393 0.045723185 0.64100003 12205964
0.14115469 0.045723185 0.64100003 10900119
0.14119156 0.045509189 0.63800001 14452941
0.14122187 0.045295198 0.63500005 16774399
0.14191608 0.045295198 0.63500005 16775167
0.14216112 0.045152534 0.63300002 16580606
0.14240178 0.045009874 0.63100004 16580606
0.14309162 0.045009874 0.63100004 16580606
0.14309786 0.044795878 0.62800002 16580606
0.14332652 0.044653218 0.62600005 16711422
0.14401089 0.044653218 0.62600005 16711422
0.14423296 0.044510555 0.62400001 16711422
0.14445069 0.044367895 0.62200004 16711422
0.14513068 0.044367895 0.62200004 16711422
0.14534183 0.044225231 0.62 16711422
0.14554861 0.044082571 0.61800003 16711422
0.14622425 0.044082571 0.61800003 16579836
0.14642447 0.043939911 0.61600006 16579836
0.1466203 0.043797247 0.61400002 16711422
0.14729156 0.043797247 0.61400002 16776959
0.14748086 0.043654587 0.61200005 16447995
0.14790784 0.043583252 0.611 12884411
0.14857581 0.043583252 0.611 11700137
0.14875527 0.043440592 0.60900003 16766975
0.14893034 0.043297932 0.60700005 16771327
0.14959395 0.043297932 0.60700005 16774143
0.14976245 0.043155268 0.60500002 16771839
0.15017523 0.043083936 0.60400003 15456235
0.15058583 0.043012608 0.60300004 15850993
0.15124506 0.043012608 0.60300004 16776191
0.15140043 0.04286994 0.60100001 16776447
0.15180448 0.042798612 0.60000002 16711422
0.15246043 0.042798612 0.60000002 16711422
0.152606 0.042655952 0.59800005 16711422
0.15300345 0.042584617 0.597 16711422
0.15365611 0.042584617 0.597 16711422
0.15405031 0.042513289 0.59600002 16711422
0.15444233 0.042441957 0.59500003 16711422
0.15509281 0.042441957 0.59500003 16711422
0.15548153 0.042370629 0.59400004 16119285
0.15586808 0.042299297 0.59300005 14277081
0.15651637 0.042299297 0.59300005 12829385
0.15689963 0.042227961 0.59200001 12960971
0.1572807 0.042156633 0.59100002 13553108
0.15792681 0.042156633 0.59100002 14342624
0.1583046 0.042085301 0.59000003 16514043
0.15868022 0.042013973 0.58900005 16645629
0.15932414 0.042013973 0.58900005 16711422
0.15969646 0.041942637 0.588 16711422
0.16033928 0.041942637 0.588 16711423
0.16070834 0.041871309 0.58700001 16645631
0.16135006 0.041871309 0.58700001 14475250
0.16171585 0.041799977 0.58600003 12369874
0.16207944 0.041728649 0.58500004 13554663
0.16271898 0.041728649 0.58500004 15923199
0.16335852 0.041728649 0.58500004 16252927
0.16371773 0.041657317 0.58400005 16055551
0.16435619 0.041657317 0.58400005 15922431
0.16499466 0.041657317 0.58400005 14277621
0.1656331 0.041657317 0.58400005 12829173
0.16627155 0.041657317 0.58400005 11513313
0.16691001 0.041657317 0.58400005 10460634
0.16754846 0.041657317 0.58400005 9802704
0.16818692 0.041657317 0.58400005 9210315
0.16882537 0.041657317 0.58400005 8618178
0.16946383 0.041657317 0.58400005 7959485
0.17010228 0.041657317 0.58400005 8222657
0.17074072 0.041657317 0.58400005 7698111
0.17137919 0.041657317 0.58400005 7105974
0.1723122 0.041728649 0.58500004 6778291
0.17295174 0.041728649 0.58500004 6515119
0.17388803 0.041799977 0.58600003 6318255
0.17452866 0.041799977 0.58600003 5791911
0.17516932 0.041799977 0.58600003 4805014
0.17610997 0.041871309 0.58700001 5594530
0.1767517 0.041871309 0.58700001 5397151
0.17739342 0.041871309 0.58700001 5528737
0.17864177 0.042013973 0.58900005 6778291
0.17959008 0.042085301 0.59000003 6844084
0.18023509 0.042085301 0.59000003 6780089
0.1808801 0.042085301 0.59000003 6516917
0.18183278 0.042156633 0.59100002 6321599
0.18247889 0.042156633 0.59100002 7242701
0.18374471 0.042299297 0.59300005 7573213
0.18470396 0.042370629 0.59400004 8099557
0.18566538 0.042441957 0.59500003 8364014
0.18631586 0.042441957 0.59500003 8824565
0.18728057 0.042513289 0.59600002 9217520
0.18824746 0.042584617 0.597 9217520
0.18921657 0.042655952 0.59800005 9479399
0.18987033 0.042655952 0.59800005 9939950
0.19052409 0.042655952 0.59800005 10991078
0.19149753 0.04272728 0.59900004 12701695
0.19215238 0.04272728 0.59900004 15727359
0.19312912 0.042798612 0.60000002 16056319
0.19443102 0.042941276 0.60200006 16449535
0.19541322 0.043012608 0.60300004 15396854
0.19607244 0.043012608 0.60300004 11580342
0.19771042 0.043226596 0.60600001 9474966
0.20033704 0.043654587 0.61200005 10394770
0.2010061 0.043654587 0.61200005 11447458
0.20167516 0.043654587 0.61200005 9011573
0.20267485 0.043725915 0.61300004 7827299
0.2050036 0.044082571 0.61800003 9338499
0.13314509 0.048888098 0.67500001 6841467
0.13388304 0.048888098 0.67500001 8946594
0.13422211 0.048743248 0.67300004 8486043
0.13415574 0.04845354 0.66900003 8285061
0.13448387 0.048308685 0.66700006 4666446
0.13501033 0.048236258 0.66600001 5579322
0.13553463 0.048163831 0.66500002 5579322
0.13626163 0.048163831 0.66500002 6365234
0.13657665 0.048018981 0.66300005 6628406
0.13688728 0.047874123 0.66100001 7217720
0.13760991 0.047874123 0.66100001 7349306
0.13770473 0.047656845 0.65800005 8004675
0.13779296 0.047439564 0.65500003 7938882
0.13850904 0.047439564 0.65500003 9184849
0.13858745 0.047222283 0.65200001 9382228
0.13887294 0.047077429 0.65000004 10563940
0.13958356 0.047077429 0.65000004 10695526
0.13964663 0.046860147 0.64700001 11154546
0.14035396 0.046860147 0.64700001 11220339
0.14040723 0.04664287 0.64400005 11156358
0.14023481 0.046353161 0.64000005 11024772
0.14093448 0.046353161 0.64000005 10577311
0.14097026 0.04613588 0.63700002 16630267
0.14122187 0.04599103 0.63500005 16775679
0.14191608 0.04599103 0.63500005 16775679
0.14193653 0.045773748 0.63200003 16580606
0.14195043 0.045556463 0.62900001 16580606
0.14263807 0.045556463 0.62900001 16580606
0.14287001 0.045411613 0.62700003 16580606
0.14309755 0.045266755 0.625 16580606
0.14378083 0.045266755 0.625 16580606
0.14400183 0.045121904 0.62300003 16711422
0.14421846 0.044977054 0.62100005 16711422
0.14489736 0.044977054 0.62100005 16711422
0.1451074 0.044832196 0.61900002 16711422
0.1453131 0.044687346 0.61700004 16775935
0.14598763 0.044687346 0.61700004 14999014
0.14594907 0.044470064 0.61400002 14276826
0.14638151 0.044397637 0.61300004 16776959
0.14705168 0.044397637 0.61300004 16776703
0.14723986 0.044252783 0.611 14407642
0.14742368 0.044107929 0.60900003 12088999
0.14808948 0.044107929 0.60900003 11694241
0.14851101 0.044035506 0.60800004 13928650
0.14868498 0.043890648 0.60600001 16691956
0.14934748 0.043890648 0.60600001 15123940
0.14951491 0.043745797 0.60400003 15584491
0.1499266 0.04367337 0.60300004 15787247
0.1503361 0.043600943 0.60200006 16775167
0.15099424 0.043600943 0.60200006 16776959
0.15114853 0.043456089 0.60000002 16776959
0.15155147 0.043383662 0.59900004 16711422
0.15220633 0.043383662 0.59900004 16711422
0.15235078 0.043238807 0.597 16645631
0.15274717 0.04316638 0.59600002 15790324
0.15339874 0.04316638 0.59600002 16514047
0.15379184 0.043093953 0.59500003 16711423
0.15444233 0.043093953 0.59500003 16711422
0.15509281 0.043093953 0.59500003 16711422
0.15548153 0.04302153 0.59400004 16645629
0.15586808 0.042949103 0.59300005 16250871
0.15651637 0.042949103 0.59300005 16185080
0.15689963 0.042876672 0.59200001 16579838
0.1572807 0.042804245 0.59100002 16711423
0.15792681 0.042804245 0.59100002 16711423
0.1583046 0.042731822 0.59000003 16711422
0.15868022 0.042659394 0.58900005 16711422
0.15932414 0.042659394 0.58900005 16711422
0.15969646 0.042586964 0.588 16711422
0.16033928 0.042586964 0.588 16513791
0.16070834 0.04251454 0.58700001 14934779
0.16135006 0.04251454 0.58700001 10725841
0.16171585 0.042442113 0.58600003 12107494
0.16207944 0.042369686 0.58500004 14411519
0.16271898 0.042369686 0.58500004 14543103
0.16335852 0.042369686 0.58500004 14345727
0.16399807 0.042369686 0.58500004 12832503
0.16463761 0.042369686 0.58500004 11448810
0.16499466 0.042297263 0.58400005 10593501
0.1656331 0.042297263 0.58400005 10264038
0.16627155 0.042297263 0.58400005 9606108
0.16691001 0.042297263 0.58400005 8882897
0.16754846 0.042297263 0.58400005 8553932
0.16818692 0.042297263 0.58400005 8094149
0.16911446 0.042369686 0.58500004 7633598
0.16946383 0.042297263 0.58400005 6909877
0.17010228 0.042297263 0.58400005 5857189
0.17074072 0.042297263 0.58400005 5594015
0.17137919 0.042297263 0.58400005 5791394
0.1723122 0.042369686 0.58500004 5528222
0.17295174 0.042369686 0.58500004 5396636
0.17359129 0.042369686 0.58500004 5463194
0.17423083 0.042369686 0.58500004 5397401
0.17516932 0.042442113 0.58600003 5331862
0.17580995 0.042442113 0.58600003 4937104
0.1764506 0.042442113 0.58600003 4673419
0.17739342 0.04251454 0.58700001 4673419
0.17803515 0.04251454 0.58700001 5593751
0.17898129 0.042586964 0.588 5791130
0.17962411 0.042586964 0.588 5660060
0.18057354 0.042659394 0.58900005 5396888
0.18152511 0.042731822 0.59000003 5530020
0.18217012 0.042731822 0.59000003 5990571
0.18312499 0.042804245 0.59100002 6453185
0.1837711 0.042804245 0.59100002 7571666
0.18504131 0.042949103 0.59300005 9020659
0.1856896 0.042949103 0.59300005 10204927
0.18633789 0.042949103 0.59300005 10468095
0.1873015 0.04302153 0.59400004 10139135
0.18795091 0.04302153 0.59400004 9021424
0.18860029 0.04302153 0.59400004 8889838
0.18956827 0.043093953 0.59500003 8824036
0.19053844 0.04316638 0.59600002 9284587
0.19119 0.04316638 0.59600002 11255531
0.19216347 0.043238807 0.597 13887231
0.19313912 0.043311238 0.59800005 16187135
0.19379288 0.043311238 0.59800005 16187135
0.19509695 0.043456089 0.60000002 15461875
0.19640541 0.043600943 0.60200006 11316916
0.19739091 0.04367337 0.60300004 10131869
0.19805013 0.04367337 0.60300004 11447729
0.20167516 0.04432521 0.61200005 8550520
0.20267485 0.044397637 0.61300004 8155762
0.2050036 0.044759773 0.61800003 9732746
0.13294785 0.049554244 0.67400002 6841467
0.13368469 0.049554244 0.67400002 8946594
0.13402267 0.049407199 0.67200005 8486043
0.13475734 0.049407199 0.67200005 8285061
0.13428223 0.048966061 0.66600001 4666446
0.1346049 0.048819017 0.66400003 5579322
0.13533083 0.048819017 0.66400003 5579322
0.13605674 0.048819017 0.66400003 6365234
0.13616465 0.048598446 0.66100001 6628406
0.1366802 0.048524927 0.66000003 7217720
0.13740173 0.048524927 0.66000003 7349306
0.13770473 0.048377883 0.65800005 8004675
0.13779296 0.048157312 0.65500003 7938882
0.13850904 0.048157312 0.65500003 9184849
0.13837488 0.047863223 0.65100002 9382228
0.13865928 0.047716178 0.64900005 10563940
0.1393688 0.047716178 0.64900005 10695526
0.13964663 0.04756913 0.64700001 11154546
0.14035396 0.04756913 0.64700001 11220339
0.1401892 0.04727504 0.64300001 11156358
0.14023481 0.047054477 0.64000005 11024772
0.14093448 0.047054477 0.64000005 10577311
0.14074895 0.046760384 0.63600004 16630267
0.14144425 0.046760384 0.63600004 16775679
0.14148737 0.04631925 0.63000005 16580606
0.14172475 0.046172202 0.62800002 16580606
0.14241131 0.046172202 0.62800002 16580606
0.14287001 0.046098679 0.62700003 16580606
0.14309755 0.045951635 0.625 16580606
0.14378083 0.045951635 0.625 16580606
0.14400183 0.04580459 0.62300003 16711422
0.14421846 0.045657545 0.62100005 16711422
0.14489736 0.045657545 0.62100005 16711422
0.1451074 0.045510497 0.61900002 16711422
0.1453131 0.045363456 0.61700004 16775935
0.14598763 0.045363456 0.61700004 14999014
0.14594907 0.045142885 0.61400002 14276826
0.14638151 0.045069363 0.61300004 16776959
0.14705168 0.045069363 0.61300004 16776703
0.14723986 0.044922315 0.611 14407642
0.14742368 0.044775274 0.60900003 12088999
0.14808948 0.044775274 0.60900003 11694241
0.14851101 0.044701751 0.60800004 13928650
0.14868498 0.044554703 0.60600001 16691956
0.14934748 0.044554703 0.60600001 15123940
0.14951491 0.044407662 0.60400003 15584491
0.1499266 0.04433414 0.60300004 15787247
0.1503361 0.044260617 0.60200006 16775167
0.15099424 0.044260617 0.60200006 16776959
0.15114853 0.044113569 0.60000002 16776959
0.15155147 0.044040047 0.59900004 16711422
0.15220633 0.044040047 0.59900004 16711422
0.15235078 0.043892998 0.597 16645631
0.15274717 0.04381948 0.59600002 15790324
0.15339874 0.04381948 0.59600002 16514047
0.15379184 0.043745957 0.59500003 16711423
0.15418276 0.043672435 0.59400004 16711422
0.15483215 0.043672435 0.59400004 16711422
0.15521979 0.043598913 0.59300005 16645629
0.15586808 0.043598913 0.59300005 16250871
0.15651637 0.043598913 0.59300005 16185080
0.1566346 0.043451864 0.59100002 16579838
0.15701458 0.043378342 0.59000003 16711423
0.15765959 0.043378342 0.59000003 16711423
0.1583046 0.043378342 0.59000003 16711422
0.15868022 0.043304823 0.58900005 16711422
0.15932414 0.043304823 0.58900005 16711422
0.15969646 0.043231297 0.588 16711422
0.1600666 0.043157775 0.58700001 16513791
0.16043456 0.043084253 0.58600003 14934779
0.16107519 0.043084253 0.58600003 10725841
0.16171585 0.043084253 0.58600003 12107494
0.16207944 0.04301073 0.58500004 14411519
0.16271898 0.04301073 0.58500004 14543103
0.16335852 0.04301073 0.58500004 14345727
0.16399807 0.04301073 0.58500004 12832503
0.16463761 0.04301073 0.58500004 11448810
0.16499466 0.042937208 0.58400005 10593501
0.1656331 0.042937208 0.58400005 10264038
0.16627155 0.042937208 0.58400005 9606108
0.16691001 0.042937208 0.58400005 8882897
0.16754846 0.042937208 0.58400005 8553932
0.16818692 0.042937208 0.58400005 8094149
0.16882537 0.042937208 0.58400005 7633598
0.16946383 0.042937208 0.58400005 6909877
0.17010228 0.042937208 0.58400005 5857189
0.17074072 0.042937208 0.58400005 5594015
0.17137919 0.042937208 0.58400005 5791394
0.1723122 0.04301073 0.58500004 5528222
0.17295174 0.04301073 0.58500004 5396636
0.17359129 0.04301073 0.58500004 5463194
0.17423083 0.04301073 0.58500004 5397401
0.17487039 0.04301073 0.58500004 5331862
0.17580995 0.043084253 0.58600003 4937104
0.1764506 0.043084253 0.58600003 4673419
0.17709123 0.043084253 0.58600003 4673419
0.17803515 0.043157775 0.58700001 5593751
0.1786769 0.043157775 0.58700001 5791130
0.17931864 0.043157775 0.58700001 5660060
0.18026695 0.043231297 0.588 5396888
0.18090977 0.043231297 0.588 5530020
0.18155259 0.043231297 0.588 5990571
0.18250528 0.043304823 0.58900005 6453185
0.18314922 0.043304823 0.58900005 7571666
0.18410517 0.043378342 0.59000003 9020659
0.18475018 0.043378342 0.59000003 10204927
0.1853952 0.043378342 0.59000003 10468095
0.18604021 0.043378342 0.59000003 10139135
0.18668523 0.043378342 0.59000003 9021424
0.18733025 0.043378342 0.59000003 8889838
0.18829386 0.043451864 0.59100002 8824036
0.18893996 0.043451864 0.59100002 9284587
0.18958606 0.043451864 0.59100002 11255531
0.19055407 0.043525387 0.59200001 13887231
0.19152425 0.043598913 0.59300005 16187135
0.19217254 0.043598913 0.59300005 16187135
0.19347115 0.043745957 0.59500003 15461875
0.19444788 0.04381948 0.59600002 11316916
0.19575417 0.043966524 0.59800005 10131869
0.19640793 0.043966524 0.59800005 11447729
0.19706169 0.043966524 0.59800005 8550520
0.13294785 0.050292812 0.67400002 5788782
0.13368469 0.050292812 0.67400002 8815528
0.13402267 0.050143577 0.67200005 7631254
0.13475734 0.050143577 0.67200005 9012389
0.13428223 0.049695864 0.66600001 8749217
0.1346049 0.049546629 0.66400003 6637156
0.13533083 0.049546629 0.66400003 4597573
0.13605674 0.049546629 0.66400003 5512754
0.13616465 0.049322773 0.66100001 5907512
0.1366802 0.049248155 0.66000003 6431027
0.13740173 0.049248155 0.66000003 6431027
0.13770473 0.04909892 0.65800005 8072778
0.13779296 0.048875064 0.65500003 7809606
0.13850904 0.048875064 0.65500003 8793941
0.13837488 0.04857659 0.65100002 8991320
0.13865928 0.048427355 0.64900005 9580643
0.1393688 0.048427355 0.64900005 9909608
0.13964663 0.048278116 0.64700001 10697852
0.14035396 0.048278116 0.64700001 10697852
0.1401892 0.047979642 0.64300001 9584261
0.14023481 0.047755789 0.64000005 10965914
0.14093448 0.047755789 0.64000005 14468599
0.14074895 0.047457315 0.63600004 16771327
0.14144425 0.047457315 0.63600004 16185855
0.14148737 0.047009606 0.63000005 16580607
0.14172475 0.046860367 0.62800002 16580607
0.14241131 0.046860367 0.62800002 16580606
0.14264214 0.046711132 0.62600005 16580606
0.14286861 0.046561893 0.62400001 16580606
0.14355078 0.046561893 0.62400001 16580606
0.14377068 0.046412658 0.62200004 16580606
0.14398621 0.046263415 0.62 16580606
0.14466402 0.046263415 0.62 16775935
0.14487299 0.046114184 0.61800003 16511483
0.14507759 0.045964949 0.61600006 12757704
0.14575103 0.045964949 0.61600006 14270943
0.14571136 0.045741089 0.61300004 16776447
0.14614272 0.045666475 0.61200005 16776703
0.14681178 0.045666475 0.61200005 16776958
0.14699888 0.045517232 0.61000001 16316407
0.14718162 0.045367997 0.60800004 14137547
0.14784631 0.045367997 0.60800004 12426929
0.14802247 0.045218758 0.60600001 13808078
0.14843963 0.045144141 0.60500002 16439798
0.14910105 0.045144141 0.60500002 16776191
0.14926738 0.044994906 0.60300004 16776447
0.14967796 0.044920288 0.60200006 16711422
0.1503361 0.044920288 0.60200006 16711422
0.15049258 0.044771049 0.60000002 16776959
0.15089662 0.044696432 0.59900004 16579581
0.15129846 0.044621814 0.59800005 15987199
0.15195224 0.044621814 0.59800005 14868718
0.1520956 0.044472575 0.59600002 13289954
0.15249088 0.044397958 0.59500003 14934779
0.15314136 0.044397958 0.59500003 12368602
0.15353337 0.04432334 0.59400004 13223911
0.1539232 0.044248722 0.59300005 15066349
0.15457149 0.044248722 0.59300005 15724279
0.15521979 0.044248722 0.59300005 16711422
0.15534237 0.044099484 0.59100002 16711422
0.15598848 0.044099484 0.59100002 16711422
0.15636957 0.044024866 0.59000003 16711422
0.15701458 0.044024866 0.59000003 16711423
0.15765959 0.044024866 0.59000003 16711423
0.15803629 0.043950249 0.58900005 16251135
0.15841079 0.043875627 0.588 15001076
0.15905364 0.043875627 0.588 12764659
0.15942487 0.04380101 0.58700001 11317213
0.15979391 0.043726392 0.58600003 10990839
0.16043456 0.043726392 0.58600003 9609186
0.16107519 0.043726392 0.58600003 7045324
0.16143988 0.043651775 0.58500004 9019114
0.16207944 0.043651775 0.58500004 9085672
0.16271898 0.043651775 0.58500004 9875188
0.16335852 0.043651775 0.58500004 11320063
0.16371773 0.043577157 0.58400005 10793722
0.16435619 0.043577157 0.58400005 10068456
0.16499466 0.043577157 0.58400005 8094666
0.1656331 0.043577157 0.58400005 6843314
0.16627155 0.043577157 0.58400005 6053798
0.16691001 0.043577157 0.58400005 5724823
0.16754846 0.043577157 0.58400005 5724823
0.16818692 0.043577157 0.58400005 5593233
0.16882537 0.043577157 0.58400005 4935303
0.16946383 0.043577157 0.58400005 5001348
0.17010228 0.043577157 0.58400005 5330313
0.17074072 0.043577157 0.58400005 5001602
0.17137919 0.043577157 0.58400005 4672637
0.17201765 0.043577157 0.58400005 4804221
0.17295174 0.043651775 0.58500004 5001600
0.17359129 0.043651775 0.58500004 5001085
0.17423083 0.043651775 0.58500004 4935292
0.17487039 0.043651775 0.58500004 5001339
0.17550994 0.043651775 0.58500004 5067132
0.17614949 0.043651775 0.58500004 5001339
0.17678903 0.043651775 0.58500004 5001339
0.17742857 0.043651775 0.58500004 4869751
0.17806813 0.043651775 0.58500004 4803958
0.17931864 0.04380101 0.58700001 5197946
0.18026695 0.043875627 0.588 5197946
0.18090977 0.043875627 0.588 5066360
0.18155259 0.043875627 0.588 4934774
0.18250528 0.043950249 0.58900005 5000317
0.18314922 0.043950249 0.58900005 5000317
0.18410517 0.044024866 0.59000003 5198477
0.18475018 0.044024866 0.59000003 5856407
0.1853952 0.044024866 0.59000003 5661093
0.18604021 0.044024866 0.59000003 6121644
0.18668523 0.044024866 0.59000003 7045835
0.18733025 0.044024866 0.59000003 8888039
0.18829386 0.044099484 0.59100002 10140671
0.18893996 0.044099484 0.59100002 10667007
0.18958606 0.044099484 0.59100002 10271487
0.19055407 0.044174101 0.59200001 9679352
0.19152425 0.044248722 0.59300005 9677026
0.19217254 0.044248722 0.59300005 11321851
0.19347115 0.044397958 0.59500003 15266559
0.19444788 0.044472575 0.59600002 16056063
0.19575417 0.044621814 0.59800005 15790844
0.19640793 0.044621814 0.59800005 12764366
0.19706169 0.044621814 0.59800005 9076878
0.13294785 0.051031377 0.67400002 4735839
0.13368469 0.051031377 0.67400002 8684714
0.13402267 0.050879952 0.67200005 7500440
0.13475734 0.050879952 0.67200005 8421540
0.13387899 0.050274238 0.66400003 8684712
0.1346049 0.050274238 0.66400003 8811407
0.13533083 0.050274238 0.66400003 4929620
0.13564692 0.050122809 0.66200006 5777725
0.13595864 0.049971379 0.66000003 8014687
0.13626602 0.049819954 0.65800005 6694459
0.13698538 0.049819954 0.65800005 5839150
0.13728617 0.049668521 0.65600002 7942732
0.13737223 0.049441382 0.65300006 7745353
0.13808611 0.049441382 0.65300006 8334673
0.13816233 0.049214236 0.65000004 8729431
0.13844563 0.049062807 0.648 9055841
0.13915406 0.049062807 0.648 9121634
0.13964663 0.048987094 0.64700001 9647219
0.14035396 0.048987094 0.64700001 10370942
0.13997118 0.048608523 0.64200002 8733833
0.14001571 0.048381384 0.63900006 12352448
0.14071427 0.048381384 0.63900006 15195391
0.14052765 0.048078526 0.63500005 15326975
0.14033227 0.047775667 0.63100004 15001855
0.14102212 0.047775667 0.63100004 16054527
0.14126277 0.047624238 0.62900001 16580351
0.14127339 0.047397099 0.62600005 16580351
0.14195777 0.047397099 0.62600005 16580606
0.14218642 0.047245666 0.62400001 16580606
0.14263965 0.047169954 0.62300003 16580606
0.14332074 0.047169954 0.62300003 16580606
0.14353955 0.047018528 0.62100005 16711422
0.14375398 0.046867095 0.61900002 16711422
0.1444307 0.046867095 0.61900002 16773887
0.14463857 0.046715669 0.61700004 13152712
0.14460655 0.046488527 0.61400002 11108014
0.1452778 0.046488527 0.61400002 15976696
0.14547366 0.046337098 0.61200005 16775935
0.14566512 0.046185669 0.61000001 16775935
0.146332 0.046185669 0.61000001 16711422
0.1467579 0.046109956 0.60900003 16711422
0.14693955 0.04595853 0.60700005 16645372
0.14760315 0.04595853 0.60700005 16513786
0.14777821 0.045807097 0.60500002 16645372
0.14819427 0.045731384 0.60400003 16776958
0.1488546 0.045731384 0.60400003 16711422
0.14901984 0.045579959 0.60200006 16711422
0.14942932 0.045504238 0.60100001 16711422
0.15008637 0.045504238 0.60100001 16711422
0.15024176 0.045352813 0.59900004 16513791
0.1506447 0.0452771 0.59800005 14013663
0.15104544 0.045201384 0.597 15065343
0.15169813 0.045201384 0.597 16052223
0.1518404 0.045049954 0.59500003 15394559
0.1522346 0.044974241 0.59400004 12302305
0.15288398 0.044974241 0.59400004 11446996
0.15327489 0.044898529 0.59300005 11249617
0.1539232 0.044898529 0.59300005 13618903
0.15457149 0.044898529 0.59300005 16579583
0.15469627 0.044747099 0.59100002 16711422
0.15507953 0.044671386 0.59000003 16711422
0.15572454 0.044671386 0.59000003 16711422
0.15636957 0.044671386 0.59000003 16711422
0.15648232 0.044519953 0.588 16580095
0.15712515 0.044519953 0.588 15790590
0.15776797 0.044519953 0.588 12633323
0.15814139 0.044444241 0.58700001 11514842
0.15878314 0.044444241 0.58700001 10530279
0.15942487 0.044444241 0.58700001 10596072
0.15979391 0.044368528 0.58600003 9939696
0.16043456 0.044368528 0.58600003 7636941
0.16107519 0.044368528 0.58600003 7176912
0.16143988 0.044292815 0.58500004 9611253
0.16207944 0.044292815 0.58500004 10334972
0.16271898 0.044292815 0.58500004 9545456
0.16335852 0.044292815 0.58500004 8753879
0.16371773 0.044217102 0.58400005 7832777
0.16435619 0.044217102 0.58400005 7500982
0.16499466 0.044217102 0.58400005 6185122
0.1656331 0.044217102 0.58400005 5657745
0.16627155 0.044217102 0.58400005 5855124
0.16691001 0.044217102 0.58400005 4999806
0.16754846 0.044217102 0.58400005 4934013
0.16818692 0.044217102 0.58400005 5001089
0.16882537 0.044217102 0.58400005 5066882
0.16946383 0.044217102 0.58400005 5001600
0.17010228 0.044217102 0.58400005 5264772
0.17074072 0.044217102 0.58400005 5462151
0.17137919 0.044217102 0.58400005 5725323
0.17201765 0.044217102 0.58400005 5922700
0.17295174 0.044292815 0.58500004 6054286
0.17359129 0.044292815 0.58500004 6186386
0.17423083 0.044292815 0.58500004 6383765
0.17487039 0.044292815 0.58500004 6186640
0.17550994 0.044292815 0.58500004 6055054
0.17614949 0.044292815 0.58500004 5726089
0.17678903 0.044292815 0.58500004 5726089
0.17742857 0.044292815 0.58500004 5857159
0.17806813 0.044292815 0.58500004 5396608
0.17901316 0.044368528 0.58600003 5396606
0.17965379 0.044368528 0.58600003 5330813
0.18029444 0.044368528 0.58600003 5198968
0.18093507 0.044368528 0.58600003 4935796
0.18157572 0.044368528 0.58600003 4737647
0.18221636 0.044368528 0.58600003 4342889
0.18285701 0.044368528 0.58600003 4605296
0.18381077 0.044444241 0.58700001 5526398
0.1844525 0.044444241 0.58700001 5395077
0.18509424 0.044444241 0.58700001 5197698
0.18573599 0.044444241 0.58700001 5331347
0.18637772 0.044444241 0.58700001 5989277
0.18701945 0.044444241 0.58700001 6123954
0.18766117 0.044444241 0.58700001 7637193
0.1886237 0.044519953 0.588 9612530
0.18926653 0.044519953 0.588 10994175
0.18990935 0.044519953 0.588 11387903
0.19055218 0.044519953 0.588 9874673
0.19184534 0.044671386 0.59000003 10925800
0.1928166 0.044747099 0.59100002 14544383
0.19346273 0.044747099 0.59100002 16252927
0.19410883 0.044747099 0.59100002 15990015
0.19475493 0.044747099 0.59100002 12236223
0.19540104 0.044747099 0.59100002 8222850
0.19604714 0.044747099 0.59100002 7362946
0.13402267 0.05161633 0.67200005 7829405
0.13475734 0.05161633 0.67200005 8289954
0.13387899 0.051001851 0.66400003 7697817
0.13419947 0.050848231 0.66200006 8680339
0.1349232 0.050848231 0.66200006 5061724
0.13544202 0.050771419 0.66100001 7095129
0.13554665 0.050540991 0.65800005 8542575
0.13626602 0.050540991 0.65800005 6300215
0.13656899 0.050387368 0.65600002 5971250
0.1370769 0.05031056 0.65500003 7286085
0.13716185 0.050080128 0.65200001 7286085
0.13787463 0.050080128 0.65200001 7875917
0.13794978 0.0498497 0.64900005 8073296
0.13844563 0.049772885 0.648 8662623
0.13872458 0.049619269 0.64600003 8925795
0.13943081 0.049619269 0.64600003 8596589
0.13997118 0.049312029 0.64200002 8277136
0.13979657 0.049004786 0.63800001 13672162
0.14049406 0.049004786 0.63800001 14539775
0.14030634 0.048697546 0.634 14342399
0.14033227 0.048467118 0.63100004 14476543
0.14102212 0.048467118 0.63100004 15134463
0.14103819 0.048236687 0.62800002 15923199
0.14104772 0.048006255 0.625 16449535
0.14173099 0.048006255 0.625 16580606
0.14195855 0.047852639 0.62300003 16580606
0.1424107 0.047775827 0.62200004 16580606
0.1430907 0.047775827 0.62200004 16580606
0.14330839 0.047622208 0.62 16776703
0.14352174 0.047468588 0.61800003 16776703
0.14419736 0.047468588 0.61800003 15712495
0.14416972 0.047238156 0.61500001 10251676
0.14437105 0.04708454 0.61300004 10574494
0.1450412 0.04708454 0.61300004 14785246
0.14523594 0.046930917 0.611 16772863
0.14566512 0.046854109 0.61000001 16774143
0.146332 0.046854109 0.61000001 16711422
0.1467579 0.046777297 0.60900003 16711422
0.14693955 0.046623681 0.60700005 16711422
0.14760315 0.046623681 0.60700005 16711422
0.14777821 0.046470057 0.60500002 16711422
0.14819427 0.046393249 0.60400003 16711422
0.1488546 0.046393249 0.60400003 16711422
0.14901984 0.046239629 0.60200006 16711422
0.14942932 0.046162818 0.60100001 16776959
0.15008637 0.046162818 0.60100001 16513790
0.15024176 0.046009198 0.59900004 13880812
0.1506447 0.04593239 0.59800005 12367573
0.15104544 0.045855574 0.597 14736895
0.15169813 0.045855574 0.597 14210556
0.1518404 0.045701958 0.59500003 12170719
0.1522346 0.04562515 0.59400004 11644375
0.15288398 0.04562515 0.59400004 11776467
0.15327489 0.045548338 0.59300005 12171225
0.1539232 0.045548338 0.59300005 15922426
0.15457149 0.045548338 0.59300005 16580351
0.15469627 0.045394719 0.59100002 16580606
0.15507953 0.045317907 0.59000003 16580606
0.15572454 0.045317907 0.59000003 16580351
0.15636957 0.045317907 0.59000003 16054012
0.15648232 0.045164287 0.588 14541567
0.15712515 0.045164287 0.588 12436196
0.15776797 0.045164287 0.588 11320306
0.15814139 0.045087475 0.58700001 11320306
0.15878314 0.045087475 0.58700001 10993406
0.15942487 0.045087475 0.58700001 11914495
0.15979391 0.045010667 0.58600003 11518719
0.16016078 0.044933859 0.58500004 8031699
0.16080032 0.044933859 0.58500004 8163287
0.16143988 0.044933859 0.58500004 9610733
0.16180238 0.044857051 0.58400005 8359119
0.16244082 0.044857051 0.58400005 7109052
0.16307928 0.044857051 0.58400005 6251429
0.16343738 0.044780236 0.583 5461913
0.16407473 0.044780236 0.583 5461134
0.16471212 0.044780236 0.583 6119064
0.16534947 0.044780236 0.583 5065599
0.16598684 0.044780236 0.583 5262978
0.16662419 0.044780236 0.583 5592456
0.16726154 0.044780236 0.583 5855628
0.16789892 0.044780236 0.583 5856911
0.16882537 0.044857051 0.58400005 5791118
0.16946383 0.044857051 0.58400005 5725839
0.17010228 0.044857051 0.58400005 5725839
0.17074072 0.044857051 0.58400005 5660046
0.17137919 0.044857051 0.58400005 5660046
0.17201765 0.044857051 0.58400005 5528976
0.1726561 0.044857051 0.58400005 5463183
0.17329456 0.044857051 0.58400005 5332110
0.173933 0.044857051 0.58400005 5463696
0.17457147 0.044857051 0.58400005 5267087
0.17520992 0.044857051 0.58400005 5267087
0.17584838 0.044857051 0.58400005 5398157
0.17648683 0.044857051 0.58400005 5792915
0.17712528 0.044857051 0.58400005 5858706
0.17776375 0.044857051 0.58400005 5792913
0.1784022 0.044857051 0.58400005 5660812
0.17904066 0.044857051 0.58400005 5660812
0.1796791 0.044857051 0.58400005 5726087
0.18031755 0.044857051 0.58400005 5660294
0.18095601 0.044857051 0.58400005 5462653
0.18159448 0.044857051 0.58400005 5265274
0.18223293 0.044857051 0.58400005 4935026
0.18287137 0.044857051 0.58400005 4474475
0.18350983 0.044857051 0.58400005 4473708
0.18414828 0.044857051 0.58400005 4605294
0.18478675 0.044857051 0.58400005 4868729
0.18542521 0.044857051 0.58400005 5395073
0.18606365 0.044857051 0.58400005 4870024
0.1867021 0.044857051 0.58400005 5462161
0.18734056 0.044857051 0.58400005 5792677
0.18797903 0.044857051 0.58400005 7240123
0.18861747 0.044857051 0.58400005 9018335
0.18925592 0.044857051 0.58400005 10465781
0.19021954 0.044933859 0.58500004 11320316
0.19118533 0.045010667 0.58600003 11254523
0.19182599 0.045010667 0.58600003 14741247
0.19246662 0.045010667 0.58600003 15859711
0.19343679 0.045087475 0.58700001 16119551
0.19407852 0.045087475 0.58700001 12171975
0.19472025 0.045087475 0.58700001 9008282
0.195362 0.045087475 0.58700001 7955594
0.13402267 0.052352708 0.67200005 7960989
0.13475734 0.052352708 0.67200005 8093088
0.13387899 0.051729463 0.66400003 7500951
0.13419947 0.051573653 0.66200006 8287378
0.1349232 0.051573653 0.66200006 4931935
0.13503221 0.051339932 0.65900004 8872826
0.13513465 0.051106215 0.65600002 6306899
0.13585183 0.051106215 0.65600002 5643568
0.13656899 0.051106215 0.65600002 6433084
0.1370769 0.051028308 0.65500003 7089219
0.13716185 0.05079459 0.65200001 7089219
0.13787463 0.05079459 0.65200001 7482444
0.13794978 0.050560877 0.64900005 7811409
0.13865928 0.050560877 0.64900005 8270177
0.13872458 0.050327156 0.64600003 8599142
0.13943081 0.050327156 0.64600003 8335986
0.13997118 0.050015531 0.64200002 8213917
0.13979657 0.049703907 0.63800001 14530045
0.14049406 0.049703907 0.63800001 13554687
0.14030634 0.049392283 0.634 12962559
0.14033227 0.049158569 0.63100004 13424636
0.14102212 0.049158569 0.63100004 14016767
0.14103819 0.048924852 0.62800002 15200255
0.14104772 0.048691131 0.625 16121343
0.14173099 0.048691131 0.625 16449535
0.14195855 0.048535321 0.62300003 16449535
0.1424107 0.048457418 0.62200004 16580606
0.1430907 0.048457418 0.62200004 16580606
0.14330839 0.048301604 0.62 16775423
0.14352174 0.048145793 0.61800003 15984378
0.14419736 0.048145793 0.61800003 11434165
0.14416972 0.047912076 0.61500001 9328789
0.14437105 0.047756266 0.61300004 10110355
0.1450412 0.047756266 0.61300004 11294629
0.14523594 0.047600452 0.611 16104434
0.14542633 0.047444642 0.60900003 16770815
0.14609212 0.047444642 0.60900003 16776703
0.14627595 0.047288831 0.60700005 16776703
0.14645539 0.047133017 0.60500002 16711422
0.14711681 0.047133017 0.60500002 16711422
0.14753395 0.047055114 0.60400003 16711422
0.14770357 0.046899304 0.60200006 16711422
0.14836171 0.046899304 0.60200006 16711422
0.14877228 0.046821393 0.60100001 16711422
0.14893205 0.046665583 0.59900004 16645119
0.14958692 0.046665583 0.59900004 13947613
0.14999095 0.04658768 0.59800005 11314642
0.15039279 0.046509769 0.597 11117263
0.15079243 0.046431866 0.59600002 12105696
0.15144403 0.046431866 0.59600002 13618935
0.1518404 0.046353959 0.59500003 14013947
0.1522346 0.046276055 0.59400004 12500708
0.15288398 0.046276055 0.59400004 12369106
0.15301642 0.046120241 0.59200001 15527167
0.15340406 0.046042334 0.59100002 16580607
0.15405017 0.046042334 0.59100002 16580607
0.15443452 0.045964431 0.59000003 16580351
0.15481669 0.045886528 0.58900005 16514559
